9.113935418462006055e+00 1.225814130696065831e+03 9.445162450641956298e+01
1.123176605056286803e+01 1.226066712694634816e+03 9.423832810201693633e+01
1.334960045695559927e+01 1.226319295143342970e+03 9.402503131748812848e+01
1.525660561690422412e+01 1.230528098294375468e+03 9.441009930816898077e+01
1.717736027617646499e+01 1.234738541271226950e+03 9.479378253390436271e+01
1.906260037793258988e+01 1.239940089668793917e+03 9.532532729488968926e+01
2.120278149688940061e+01 1.240195337286866788e+03 9.510977987078285878e+01
2.315963237567272159e+01 1.244410085262330995e+03 9.548982767125531268e+01
2.830631716094224970e+01 1.177340695994130101e+03 8.516023963901622551e+01
3.050605283210112617e+01 1.173621681210025372e+03 8.436156300569348332e+01
3.236664210659041174e+01 1.177824948593968429e+03 8.475130575238435426e+01
3.439680457447432360e+01 1.178067074893298241e+03 8.454683880956596909e+01
3.642696705223858800e+01 1.178309201193806530e+03 8.434237186575248302e+01
3.845712952012248564e+01 1.178551327493136341e+03 8.413790492293409784e+01
4.048729199788675004e+01 1.178793453793644630e+03 8.393343797912061177e+01
4.264577161599617483e+01 1.175069518627251227e+03 8.313891643149827360e+01
4.466905933972268627e+01 1.175310825013698377e+03 8.293514187559114248e+01
4.669234706344919772e+01 1.175552131400145299e+03 8.273136731968403978e+01
4.871563477729537084e+01 1.175793437785413971e+03 8.252759276477200956e+01
5.083973310514495836e+01 1.172065402153096784e+03 8.173653390407639563e+01
5.285614607483373106e+01 1.172305888625482567e+03 8.153345173607564789e+01
5.487255150581914620e+01 1.172546374198768717e+03 8.133037032733219007e+01
5.696915081864624142e+01 1.168815058909081699e+03 8.054208102813421988e+01
5.897868149559391782e+01 1.169054724568306710e+03 8.033969200729711702e+01
6.098821971124495178e+01 1.169294391126631353e+03 8.013730222720275265e+01
6.305730451920047130e+01 1.165559794814668749e+03 7.935178022496961603e+01
6.500728861372400047e+01 1.169773723345359258e+03 7.973252342527618453e+01
6.706262391360404251e+01 1.166037487205274374e+03 7.894838619885578623e+01
6.906527983651398017e+01 1.166276332950438018e+03 7.874668956592503832e+01
7.103588818327038723e+01 1.170492721222133696e+03 7.912535560350758601e+01
7.302025314573104708e+01 1.174710750650863474e+03 7.950263233483511272e+01
7.503665857671647643e+01 1.174951236224149625e+03 7.929955092609162648e+01
7.704164780241882227e+01 1.179171725393938004e+03 7.967475050357225541e+01
7.906493551626498117e+01 1.179413031779206676e+03 7.947097594866022519e+01
8.109054899307173514e+01 1.183635980691125269e+03 7.984409835354463780e+01
8.312991950790545559e+01 1.187860570327962478e+03 8.021583523422629014e+01
8.516695672982710619e+01 1.188103516541353656e+03 8.001067590350155001e+01
8.722695904434894487e+01 1.192330566820599188e+03 8.038033485133465206e+01
8.930071128814049075e+01 1.196559256496977014e+03 8.074861279553510940e+01
9.135149801813761883e+01 1.196803842538490699e+03 8.054206868899760252e+01
9.344587408421593011e+01 1.201034992384560155e+03 8.090826570916127025e+01
9.550353556825079693e+01 1.201280398340134980e+03 8.070102921471740842e+01
9.763287791992087250e+01 1.206511059950229310e+03 8.120798550762521018e+01
9.969914792143953264e+01 1.206757492596285147e+03 8.099988201003259292e+01
1.017654028356711535e+02 1.207003923442963469e+03 8.079178003194965640e+01
1.039096363635254932e+02 1.211241019034016517e+03 8.115295948383428026e+01
1.060676189695091551e+02 1.215479754881878762e+03 8.151275039859331173e+01
1.082393510725595434e+02 1.219720130557810307e+03 8.187115652866253868e+01
1.104494872654833841e+02 1.224960427523270482e+03 8.236997951907747506e+01
1.126504370619721982e+02 1.229204287831364127e+03 8.272544301166072955e+01
1.148651514428147209e+02 1.233449789766904587e+03 8.307952020004444194e+01
1.171234109041224229e+02 1.238695826129614943e+03 8.357349647610990928e+01
1.192412415461036090e+02 1.238948408129362406e+03 8.336020007071218174e+01
1.214920483634135167e+02 1.243198214611072672e+03 8.371064222482644368e+01
1.237566197772144108e+02 1.247449662719158141e+03 8.405969809349051047e+01
1.258881999173907502e+02 1.247703884545849633e+03 8.384501691327514550e+01
1.282117845947628325e+02 1.252957711887394680e+03 8.433241398820328527e+01
1.303519732524229653e+02 1.253212960404567411e+03 8.411686580483919329e+01
1.326595118556004991e+02 1.257469532974009326e+03 8.446159424145523076e+01
1.350243450473187181e+02 1.262728279798743188e+03 8.494483698994028487e+01
1.371800018990936962e+02 1.262985373122259034e+03 8.472773093403563394e+01
1.395706300573752969e+02 1.268247196851850049e+03 8.520837193891853190e+01
1.417348803393470007e+02 1.268505315066469393e+03 8.499040039937477786e+01
1.438991306311990570e+02 1.268763433282267215e+03 8.477242885883592294e+01
1.462719798041088666e+02 1.273027794602532595e+03 8.511058338401423384e+01
1.484431048401182807e+02 1.273286732731213078e+03 8.489191945656409644e+01
1.506142298860081041e+02 1.273545670861072040e+03 8.467325552811888656e+01
1.527853549220175751e+02 1.273804608989752523e+03 8.445459160066877757e+01
1.547203519060049643e+02 1.270054020761322136e+03 8.368257419615611070e+01
1.571276050039168695e+02 1.274322485248292196e+03 8.401726374477345871e+01
1.590488524798287244e+02 1.270570257191739302e+03 8.324663111607350174e+01
1.612131027716808376e+02 1.270828375407537123e+03 8.302865957553467524e+01
1.633773379861261787e+02 1.271086491825135454e+03 8.281068955351037175e+01
1.658120900804283337e+02 1.275358235965993572e+03 8.314260955249244489e+01
1.679832151164378047e+02 1.275617174094674056e+03 8.292394562504233591e+01
1.701543401524472756e+02 1.275876112223354767e+03 8.270528169759219850e+01
1.723254501209303839e+02 1.276135048555014237e+03 8.248661928766154006e+01
1.748690867380284999e+02 1.281415120759753790e+03 8.295185012118056989e+01
1.773536803556792734e+02 1.285692809705894433e+03 8.327874653790030379e+01
1.799299573995858168e+02 1.290976774274654645e+03 8.374069380943774377e+01
1.825234363911728792e+02 1.296262790424999366e+03 8.420090859418735363e+01
1.847272165014513519e+02 1.296525623144586916e+03 8.397895582492833455e+01
1.873464758231500582e+02 1.301814713972956042e+03 8.443657415478025996e+01
1.898981133429045940e+02 1.306100398876152440e+03 8.475671827363487409e+01
1.925500423764524953e+02 1.311393386521136335e+03 8.521104248284564164e+01
1.952191436525743597e+02 1.316688421724976024e+03 8.566364100162027739e+01
1.974555939046482536e+02 1.316955150832491427e+03 8.543839787303286926e+01
1.996920441666024431e+02 1.317221879941185307e+03 8.521315474345033181e+01
2.023955191920238406e+02 1.322521014714099692e+03 8.566229131481114223e+01
2.046405779615815277e+02 1.322788770512096335e+03 8.543618118307495024e+01
2.073698483857693873e+02 1.328090981758930411e+03 8.588271979189087801e+01
2.101163354149787494e+02 1.333395246815413884e+03 8.632752063309646928e+01
2.128799795983464662e+02 1.338701557632500908e+03 8.677059729350341399e+01
2.156608408079299579e+02 1.344009921828246888e+03 8.721193995848014424e+01
2.184588583227884726e+02 1.349320332642023232e+03 8.765155092890975652e+01
2.212740932926803055e+02 1.354632796406896887e+03 8.808943165534978448e+01
2.235707127125807858e+02 1.354906701559763405e+03 8.785812861481340974e+01
2.265206129543174995e+02 1.361230567637802324e+03 8.842672747332838412e+01
2.288275143356407000e+02 1.361505699063594420e+03 8.819438888945418853e+01
2.316960587967282095e+02 1.366824520757957089e+03 8.862690057333708182e+01
2.345817599732761209e+02 1.372145388639306702e+03 8.905768432597577089e+01
2.376004077367580294e+02 1.378477453854476153e+03 8.961935931728950777e+01
2.405222315144670517e+02 1.383802629879572578e+03 9.004650499763454263e+01
2.428652555068317440e+02 1.384082069450289964e+03 8.981052834047159195e+01
2.458128294488301151e+02 1.389410316556959287e+03 9.023508059407097903e+01
2.489002548778618120e+02 1.395750584505603911e+03 9.078982867227716724e+01
2.518839514320301589e+02 1.401083139756073024e+03 9.121074286245996632e+01
2.542544744207851579e+02 1.401365858980678695e+03 9.097199665566174076e+01
2.573917418042400413e+02 1.407712071304794108e+03 9.152172492279069616e+01
2.604201238137585506e+02 1.413049956424705442e+03 9.193813482188971875e+01
2.635969516003993931e+02 1.419400886420322649e+03 9.248388258458211908e+01
2.667943730643938807e+02 1.425754272990411437e+03 9.302755245927176020e+01
2.698777535076478671e+02 1.431098716989465629e+03 9.343842702929015331e+01
2.731147349448821728e+02 1.437456821659742900e+03 9.397811263823044214e+01
-5.681068759693502557e+00 1.251199768862201836e+03 9.764997430744264761e+01
-3.516822242133272880e+00 1.251457886627860717e+03 9.743200314703000231e+01
-1.352575724573057414e+00 1.251716004393519370e+03 9.721403198661732858e+01
2.265680484767855773e+00 1.229249643513873025e+03 9.357107416033994696e+01
4.390389645198311541e+00 1.229503045876642318e+03 9.335708498790475574e+01
6.754216010443258256e+00 1.225802724753287976e+03 9.254883019565923519e+01
8.872050416835975284e+00 1.226055307201996129e+03 9.233553341113039892e+01
1.076451711660934052e+01 1.230263252963771947e+03 9.271511747159431138e+01
1.288922626715945796e+01 1.230516655325362763e+03 9.250112830015422105e+01
1.480232099232910059e+01 1.234727061279408190e+03 9.287863480789576442e+01
1.667798196403138178e+01 1.239928563374149235e+03 9.340245530600552115e+01
1.881816308298817120e+01 1.240183810992222334e+03 9.318690788189869068e+01
2.076735402004548803e+01 1.244398521941451236e+03 9.356077898511674107e+01
2.291440989304003040e+01 1.244654589473585474e+03 9.334453917310355564e+01
2.483992789544375057e+01 1.249862037743121846e+03 9.386333833174927577e+01
2.699557719863503280e+01 1.250119130166359582e+03 9.364623303609698723e+01
2.915122651170665335e+01 1.250376222590775797e+03 9.342912773944962623e+01
3.111112581312209358e+01 1.255587771328539247e+03 9.394446420030126887e+01
3.327536855639045399e+01 1.255845888644058959e+03 9.372649342001480477e+01
3.543961884824253872e+01 1.256104006859856781e+03 9.350852187947597827e+01
4.039139738575799043e+01 1.175058621881061072e+03 8.132106874797915452e+01
4.228558277157071643e+01 1.179266772621057498e+03 8.170047971171524637e+01
4.431574524933496662e+01 1.179508898921565788e+03 8.149601276790176030e+01
4.646126055693752477e+01 1.175782541040402066e+03 8.070974508025781802e+01
4.859301881888971764e+01 1.172054542430890933e+03 7.992486293755607107e+01
5.060943178857849034e+01 1.172295028903276716e+03 7.972178076955532333e+01
5.272056579716933555e+01 1.168564570553885687e+03 7.893897577970537327e+01
5.473009647411701195e+01 1.168804236213110698e+03 7.873658675886827041e+01
5.682059911296586563e+01 1.165071316792624202e+03 7.795586346317975313e+01
5.882326258445949918e+01 1.165310163438065956e+03 7.775416606999664282e+01
6.082591850736943684e+01 1.165549009183229828e+03 7.755246943706589491e+01
6.282857444015971282e+01 1.165787854929571949e+03 7.735077280314007453e+01
6.483123790177300805e+01 1.166026701573835226e+03 7.714907541095206511e+01
6.683389383456328403e+01 1.166265547320177575e+03 7.694737877702624473e+01
6.883654975747322169e+01 1.166504393065341219e+03 7.674568214409549682e+01
7.080637205439218462e+01 1.170721565084487338e+03 7.711747155414724375e+01
7.281591027992355691e+01 1.170961231643990459e+03 7.691508177305777849e+01
7.480635726015000841e+01 1.175180862974329557e+03 7.728479779157055418e+01
7.681056129590714932e+01 1.179402135034194771e+03 7.765312826414603364e+01
7.883384900975330822e+01 1.179643441419463443e+03 7.744935370923400342e+01
8.085867729887179678e+01 1.183867173219208325e+03 7.781560702895765758e+01
8.289726262488878206e+01 1.188092545744997096e+03 7.818047481460635595e+01
8.494959745785277505e+01 1.192319558100033419e+03 7.854395781457014891e+01
8.699351697251552196e+01 1.192563325126585369e+03 7.833810533668176390e+01
8.906648316759810768e+01 1.196792798549288136e+03 7.869950666322370125e+01
9.115319928969347529e+01 1.201023911371373515e+03 7.905952696638851762e+01
9.321086077372834211e+01 1.201269317326948112e+03 7.885229047194465579e+01
9.533062821059132830e+01 1.206499932655721750e+03 7.935152589204062679e+01
9.745343677903440494e+01 1.210735350025155412e+03 7.970791115994094866e+01
9.946315312634160932e+01 1.206992796148455909e+03 7.893532041636507302e+01
1.015997112028601634e+02 1.211229853346012078e+03 7.929032090845265657e+01
1.037500338561090416e+02 1.215468552167586267e+03 7.964393511708024675e+01
1.058300533657031792e+02 1.215716624641764611e+03 7.943444684367489117e+01
1.081146668633471108e+02 1.224949141932359908e+03 8.048726288644095916e+01
1.102101545571757413e+02 1.225199059211702888e+03 8.027621674149017394e+01
1.124103191648478344e+02 1.229443702408747868e+03 8.062481113904044605e+01
1.146242483580020775e+02 1.233689987232114845e+03 8.097201924226339997e+01
1.168815259024963922e+02 1.238937002635545241e+03 8.145740538082074522e+01
1.189993565444775783e+02 1.239189584635292704e+03 8.124410897542301768e+01
1.213815691803718551e+02 1.247438181378100580e+03 8.214455150686535490e+01
1.236869850619048208e+02 1.252690937974676899e+03 8.262508942342594764e+01
1.258271737195649820e+02 1.252946186491849630e+03 8.240954124006185566e+01
1.279673472998183996e+02 1.253201433210823097e+03 8.219399457521228669e+01
1.302672259612699293e+02 1.257457968754029707e+03 8.253254631457394908e+01
1.324142893729678008e+02 1.257714037185263805e+03 8.231630574330347372e+01
1.347781406478726467e+02 1.262973763050717935e+03 8.279095835428037731e+01
1.369337974996475964e+02 1.263230856374233781e+03 8.257385229837572638e+01
1.390894543415422504e+02 1.263487949696571150e+03 8.235674624346614792e+01
1.414876944541621242e+02 1.268751776929352218e+03 8.282793539739174093e+01
1.436519447460141805e+02 1.269009895145150040e+03 8.260996385685288601e+01
1.458161799505792260e+02 1.269268011561570120e+03 8.239199383582368341e+01
1.479804302424312823e+02 1.269526129777367942e+03 8.217402229528485691e+01
1.501446805244029861e+02 1.269784247991987286e+03 8.195605075574110288e+01
1.523089308162550424e+02 1.270042366207784880e+03 8.173807921520224795e+01
1.544731660208200879e+02 1.270300482624204960e+03 8.152010919417307377e+01
1.566374163126721442e+02 1.270558600840002782e+03 8.130213765363421885e+01
1.588016665946438479e+02 1.270816719054622126e+03 8.108416611409046482e+01
1.609659168864959611e+02 1.271074837270419948e+03 8.086619457355163831e+01
1.631301521009413023e+02 1.271332953688018279e+03 8.064822455152733482e+01
1.652944023829130060e+02 1.271591071902637623e+03 8.043025301198358079e+01
1.677352436124900805e+02 1.275864419275195360e+03 8.075460776671354779e+01
1.699063686484995515e+02 1.276123357403876071e+03 8.053594383926341038e+01
1.720774786169826598e+02 1.276382293735535541e+03 8.031728142933275194e+01
1.746201337483419707e+02 1.281663344551182945e+03 8.077392589652865240e+01
1.771039421771760090e+02 1.285941816386275150e+03 8.109395321821543234e+01
1.796792377353437473e+02 1.291226759565943439e+03 8.154731412342974295e+01
1.822717348101174366e+02 1.296513754757008428e+03 8.199893877067117387e+01
1.844755149203958808e+02 1.296776587476595978e+03 8.177698600141215479e+01
1.870937923264096696e+02 1.302066657344560099e+03 8.222601420362815361e+01
1.896446446584759258e+02 1.306353125135582786e+03 8.253928923732200928e+01
1.922955922051565665e+02 1.311647091392599805e+03 8.298502707033745196e+01
1.949637115644650578e+02 1.316943105637159761e+03 8.342903545160393719e+01
1.972001618165389232e+02 1.317209834744675163e+03 8.320379232301652905e+01
1.994366120784931127e+02 1.317476563853369043e+03 8.297854919343399160e+01
2.021391056193041891e+02 1.322776677236066234e+03 8.341909940834386816e+01
2.043841643888618762e+02 1.323044433034062877e+03 8.319298927660767617e+01
2.071124528973648466e+02 1.328347623320492175e+03 8.363093775778764893e+01
2.098579584397069198e+02 1.333652866989008771e+03 8.406715222279791533e+01
2.126206211384643154e+02 1.338960156415878828e+03 8.450164252675392618e+01
2.154005004312344056e+02 1.344269499652344848e+03 8.493439505422250591e+01
2.181975364603540868e+02 1.349580889077029269e+03 8.536541965832898882e+01
2.210117895134325465e+02 1.354894331882622964e+03 8.579471024726086625e+01
2.239501998475203379e+02 1.361218142421898847e+03 8.635404405939675598e+01
2.262571313935373212e+02 1.361493277445267950e+03 8.612170243749835663e+01
2.291160703330406250e+02 1.366812049690491904e+03 8.654649250653147874e+01
2.319921965936529773e+02 1.372132871291646097e+03 8.696955537648614154e+01
2.349993540074026441e+02 1.378464881397811041e+03 8.752196154135862116e+01
2.373337845596902298e+02 1.378743296076246679e+03 8.728685036882987447e+01
2.402546268516604471e+02 1.384069450712251410e+03 8.770540968285175154e+01
2.425976508440251393e+02 1.384348890282968796e+03 8.746943302568880085e+01
2.462685609680315224e+02 1.395737864378418408e+03 8.866772031440919477e+01
2.492426821554290655e+02 1.401070373776147562e+03 8.908090985271311979e+01
2.516132051540643602e+02 1.401353093001931484e+03 8.884216364491976492e+01
2.547389826188615984e+02 1.407699249787230656e+03 8.938262685679248420e+01
2.585233563047229381e+02 1.419101756056964405e+03 9.056948671151153007e+01
2.616989753027490906e+02 1.425453857648724806e+03 9.110492634012680924e+01
2.641090281198107732e+02 1.425741291378298456e+03 9.086219890361329021e+01
2.671828637920624487e+02 1.431085692692377279e+03 9.126534955491359824e+01
-8.373659618999610643e+00 1.255137698951034508e+03 9.629703207734519310e+01
-6.202538347401642227e+00 1.255396636630754529e+03 9.607836852902616442e+01
-3.764008127318163588e+00 1.251704348490743769e+03 9.526953814504696538e+01
-1.599761609757948122e+00 1.251962466256402422e+03 9.505156698463429166e+01
1.452284384973097531e+00 1.238385552271344068e+03 9.277286710150991667e+01
4.147719454755545598e+00 1.229745005271524178e+03 9.123412479758263771e+01
6.512331008817227485e+00 1.226043901259218273e+03 9.043273910037007113e+01
8.397137765736118808e+00 1.230251809995884514e+03 9.080614645370738458e+01
1.052184692616657458e+01 1.230505212358653807e+03 9.059215728127219336e+01
1.264655607671669202e+01 1.230758614720244623e+03 9.037816810983210303e+01
1.477126523714716200e+01 1.231012017083013916e+03 9.016417893739694023e+01
1.643354466908695599e+01 1.240172284697577425e+03 9.126403589301452257e+01
1.857372578804374541e+01 1.240427532315650524e+03 9.104848846890769209e+01
2.052213153628433417e+01 1.244643026153831215e+03 9.141549047709278852e+01
2.266918740927887654e+01 1.244899093685965454e+03 9.119925066507960310e+01
2.481624328227341891e+01 1.245155161218099693e+03 9.098301085306641767e+01
2.674937322913507387e+01 1.250364612989647640e+03 9.149235816174987690e+01
2.890502254220669442e+01 1.250621705414063854e+03 9.127525286510251590e+01
3.106067938410133422e+01 1.250878798736401222e+03 9.105814681019293744e+01
3.302818267120557039e+01 1.256092350506942012e+03 9.156402841803176784e+01
3.519243296305765512e+01 1.256350468722739834e+03 9.134605687749294134e+01
3.752762731343585756e+01 1.251650076008471387e+03 9.040683092124589848e+01
3.968328416521084989e+01 1.251907169331987234e+03 9.018972486534124755e+01
4.408387355400656560e+01 1.179740091450773889e+03 7.946752143344258457e+01
4.623017426596314294e+01 1.176012950465752510e+03 7.868812472642409261e+01
4.836271793114089945e+01 1.172284168753509221e+03 7.791011355447557207e+01
5.048151208824317138e+01 1.168553747213143652e+03 7.713348715833981828e+01
5.249105031377454367e+01 1.168793413772646545e+03 7.693109737725035302e+01
5.450058099072222006e+01 1.169033079431871556e+03 7.672870835641325016e+01
5.659186860285051779e+01 1.165299377337339592e+03 7.595485227016516205e+01
5.859453207434415134e+01 1.165538223982781346e+03 7.575315487698205175e+01
6.059718799725408900e+01 1.165777069727945218e+03 7.555145824405130384e+01
6.259984393004436498e+01 1.166015915474287340e+03 7.534976161012548346e+01
6.460250739165766731e+01 1.166254762118550616e+03 7.514806421793747404e+01
6.665253895948838192e+01 1.162516139644033728e+03 7.437836320652243671e+01
6.860781924735788095e+01 1.166732453610056609e+03 7.474467095108090575e+01
7.057685657099740695e+01 1.170950408303248196e+03 7.510959315169222350e+01
7.255965094141575378e+01 1.175170003723661694e+03 7.547312981723354142e+01
7.457605637240118313e+01 1.175410489296947844e+03 7.527004840849005518e+01
7.657947500493276038e+01 1.179632544459545215e+03 7.563150791031230824e+01
7.859664312577913847e+01 1.183856239447908138e+03 7.599158263831193949e+01
8.062680560354338866e+01 1.184098365748416427e+03 7.578711569449848184e+01
8.266460552633481029e+01 1.188324521376937582e+03 7.614511250939392539e+01
8.471615495607325386e+01 1.192552316834706289e+03 7.650172453860449195e+01
8.678145366846952413e+01 1.196781752334324892e+03 7.685694990740486787e+01
8.883225547587336735e+01 1.197026340174037614e+03 7.665040428235283798e+01
9.091818641028048376e+01 1.201258235883949510e+03 7.700355550035695273e+01
9.302836341284627508e+01 1.206488803562961948e+03 7.749506778609352864e+01
9.514352712685038682e+01 1.210724185705538503e+03 7.784527483722979468e+01
9.721665679511974645e+01 1.210971436466277964e+03 7.763648047124047480e+01
9.928980154079579279e+01 1.211218689025216690e+03 7.742768458673657506e+01
1.014324487537177077e+02 1.215457349453347206e+03 7.777511984444424797e+01
1.035124682534315212e+02 1.215705421926347071e+03 7.756563157203402170e+01
1.056757552346910245e+02 1.219946543467298852e+03 7.791099189894859478e+01
1.078753345861140645e+02 1.225187773190980124e+03 7.839350388003862236e+01
1.100678388297374113e+02 1.229432379793905966e+03 7.873591779828223025e+01
1.122741080800371805e+02 1.233678627592162911e+03 7.907694919437864201e+01
1.143833452720609642e+02 1.233930184698450148e+03 7.886451827461019093e+01
1.166396409008703614e+02 1.239178179141475539e+03 7.934131428553158116e+01
1.188820025975178538e+02 1.243428731487080995e+03 7.967871064636338474e+01
1.211381133722946970e+02 1.247680924089495647e+03 8.001471847006968119e+01
1.234425477669603879e+02 1.252934659298105089e+03 8.048667001043494906e+01
1.255827364246205491e+02 1.253189907815277820e+03 8.027112182707085708e+01
1.278749551530979431e+02 1.257446406334553558e+03 8.060349685831081956e+01
1.300220034775087754e+02 1.257702472966409687e+03 8.038725780654999653e+01
1.323762949040043964e+02 1.262962154348689410e+03 8.085418801732336647e+01
1.345319366783726878e+02 1.263219245874005992e+03 8.063708347993326697e+01
1.366875935301476375e+02 1.263476339197521838e+03 8.041997742402861604e+01
1.388432503720422915e+02 1.263733432519859207e+03 8.020287136911903758e+01
1.409988921464105829e+02 1.263990524045175789e+03 7.998576683172893809e+01
1.434047588608293040e+02 1.269256357008033092e+03 8.044749885486984908e+01
1.455689940653943495e+02 1.269514473424453172e+03 8.022952883384064648e+01
1.477332443572464058e+02 1.269772591640250994e+03 8.001155729330181998e+01
1.498974946392181096e+02 1.270030709854870338e+03 7.979358575375806595e+01
1.520617449310701659e+02 1.270288828070667932e+03 7.957561421321921102e+01
1.542259801356351829e+02 1.270546944487088012e+03 7.935764419219003685e+01
1.560884599243809419e+02 1.265790173709852752e+03 7.846602748041073028e+01
1.582441016888688807e+02 1.266047265233990856e+03 7.824892294401573167e+01
1.607187310013110562e+02 1.271321299133303000e+03 7.870372957156860139e+01
1.628829662157563973e+02 1.271579415550901331e+03 7.848575954954429790e+01
1.650472164977281295e+02 1.271837533765520675e+03 7.826778801000054386e+01
1.674872725384884689e+02 1.276111664027029747e+03 7.858527366969755690e+01
1.696583975744979398e+02 1.276370602155710458e+03 7.836660974224741949e+01
1.721914627125149764e+02 1.281651604892963178e+03 7.881553484527378828e+01
1.743711811886015539e+02 1.281911567913925637e+03 7.859600543318950372e+01
1.768542039986727445e+02 1.286190823066656094e+03 7.890915989853053247e+01
1.794285176411555653e+02 1.291476745285919378e+03 7.935393067610891649e+01
1.820200332301904211e+02 1.296764719087892445e+03 7.979696895702721804e+01
1.842238133404688938e+02 1.297027551807479995e+03 7.957501618776819896e+01
1.868411092596153935e+02 1.302318600287477238e+03 8.001545801378884448e+01
1.893911759729188020e+02 1.306605851396138405e+03 8.032186019113697739e+01
1.920411420338606376e+02 1.311900796264063501e+03 8.075901165782926228e+01
1.947082799085587794e+02 1.317197789118406490e+03 8.119443368264481364e+01
1.969447301606326732e+02 1.317464518225921893e+03 8.096919055405740551e+01
1.996376634219599850e+02 1.322764587555256639e+03 8.140201459757875568e+01
2.023477831334953692e+02 1.328066707097842027e+03 8.183310391051892907e+01
2.046014353530104586e+02 1.328335487789298895e+03 8.160612829315346062e+01
2.073373358059713496e+02 1.333640681577739542e+03 8.203462492437120090e+01
2.100904231478382655e+02 1.338947925153047890e+03 8.246139057545323681e+01
2.128607275246728534e+02 1.344257222109318491e+03 8.288642222023781869e+01
2.156482187729096722e+02 1.349568568847849292e+03 8.330972290662128898e+01
2.179362145979197294e+02 1.349841445512035307e+03 8.307928838774822111e+01
2.213797867494751586e+02 1.361205717208298893e+03 8.428136063459783145e+01
2.236867182856117324e+02 1.361480852230489745e+03 8.404901901369453299e+01
2.259936498316287157e+02 1.361755987253858848e+03 8.381667739179613363e+01
2.288516072865216415e+02 1.367075738108865835e+03 8.423288110437829346e+01
2.323983007091218269e+02 1.378452308511333968e+03 8.542456753661275570e+01
2.353009742140048672e+02 1.383777392404673265e+03 8.583626768139978935e+01
2.376439981964891501e+02 1.384056831974212400e+03 8.560029102523191114e+01
2.405724214368439391e+02 1.389384987376685785e+03 8.600939399183269529e+01
2.436368670483209371e+02 1.395725144250054882e+03 8.654561195753626635e+01
2.466013827350233782e+02 1.401057604199876550e+03 8.695107988887247075e+01
2.489719358785917507e+02 1.401340327020880750e+03 8.671233064504514232e+01
2.520862234433635649e+02 1.407686428270845454e+03 8.724352878979919979e+01
2.550954551614238426e+02 1.413024221255517887e+03 8.764449316520264688e+01
2.582492725446220447e+02 1.419375037009272546e+03 8.817171008123654019e+01
2.614237137599873222e+02 1.425728312933897541e+03 8.869684607223848616e+01
2.638337665770490048e+02 1.426015746663471191e+03 8.845411863572496713e+01
-1.483242639464718593e+01 1.250660221309248300e+03 9.419693083171480907e+01
-1.266817987708697046e+01 1.250918339074907180e+03 9.397895967130213535e+01
-1.079275217900800499e+01 1.255126006236929697e+03 9.434635965292793003e+01
-8.621630907410050781e+00 1.255384943916649718e+03 9.412769610460890135e+01
-6.450509635812082365e+00 1.255643881596369738e+03 9.390903255628987267e+01
-4.011193796965741853e+00 1.251950810138720499e+03 9.310707502865642482e+01
-1.520298571361976769e+00 1.247267891583844403e+03 9.216085103443336379e+01
1.207847305565977081e+00 1.238629273379866390e+03 9.063444957411141445e+01
3.905049265441249418e+00 1.229986964665280993e+03 8.911116461713274362e+01
6.029758425871705185e+00 1.230240367028050287e+03 8.889717544469758082e+01
8.154467576421822628e+00 1.230493769389641329e+03 8.868318627325749048e+01
1.027917673685227840e+01 1.230747171752410623e+03 8.846919710082229926e+01
1.240388588740239584e+01 1.231000574114001438e+03 8.825520792938220893e+01
1.404892647072304612e+01 1.240160758188026648e+03 8.934116578972285083e+01
1.618910758967983554e+01 1.240416005806099747e+03 8.912561836561602036e+01
1.812985297500016202e+01 1.244631463049036029e+03 8.948643990436664808e+01
2.027690883811435185e+01 1.244887530579991790e+03 8.927020009334853512e+01
2.242396471110889422e+01 1.245143598112126028e+03 8.905396028133534969e+01
2.457102058410343659e+01 1.245399665644260267e+03 8.883772046932216426e+01
2.650316882968899534e+01 1.250610096241622387e+03 8.933847952608996934e+01
2.865881814276061590e+01 1.250867188666038601e+03 8.912137422944260834e+01
3.081447498465525570e+01 1.251124281988375969e+03 8.890426817453302988e+01
3.297012429772687625e+01 1.251381374412792184e+03 8.868716287788564046e+01
3.512577361079849680e+01 1.251638466837208398e+03 8.847005758123827945e+01
3.728142291398977903e+01 1.251895559260446134e+03 8.825295228558599092e+01
3.943707976576477137e+01 1.252152652583961981e+03 8.803584622968133999e+01
4.159272906895605360e+01 1.252409745007199717e+03 8.781874093402905146e+01
4.374837838202767415e+01 1.252666837431615932e+03 8.760163563738166204e+01
4.590403522392229974e+01 1.252923930753953300e+03 8.738452958247211200e+01
5.025199638931108836e+01 1.168782590646810377e+03 7.512560687029230166e+01
5.226153461484246066e+01 1.169022257206313270e+03 7.492321708920283641e+01
5.436048216982523229e+01 1.165288592136891111e+03 7.415553771008131889e+01
5.636313809273516995e+01 1.165527437882054755e+03 7.395384107715059940e+01
5.836580156422880350e+01 1.165766284527496509e+03 7.375214368396748910e+01
6.036845748713874116e+01 1.166005130272660381e+03 7.355044705103674119e+01
6.237111341992901714e+01 1.166243976019002503e+03 7.334875041711092081e+01
6.437377688154231237e+01 1.166482822663265779e+03 7.314705302492291139e+01
6.637643281433258835e+01 1.166721668409608128e+03 7.294535639099709101e+01
6.837908873724252601e+01 1.166960514154771772e+03 7.274365975806634310e+01
7.038175219885582123e+01 1.167199360799035276e+03 7.254196236587833369e+01
7.235687909759668912e+01 1.171418918296418042e+03 7.289932308255524163e+01
7.434575527024354358e+01 1.175640115833346954e+03 7.325529714968928374e+01
7.634838849954955720e+01 1.179862954098676710e+03 7.360988568075828198e+01
7.836477121604190188e+01 1.184087432190897289e+03 7.396308942813246290e+01
8.039493369380615206e+01 1.184329558491405578e+03 7.375862248431900525e+01
8.243194842778083853e+01 1.188556497008878068e+03 7.410975020418149484e+01
8.448271245316524869e+01 1.192785075570504205e+03 7.445949125276658265e+01
8.654722597787326777e+01 1.197015293957949325e+03 7.480784753640625695e+01
8.859802778527711098e+01 1.197259881797662047e+03 7.460130191135422706e+01
9.068317310092135131e+01 1.201492560825212195e+03 7.494758027301256220e+01
9.279236883215718024e+01 1.206724106901352116e+03 7.543050806814630960e+01
9.490674692739844431e+01 1.210960272361566695e+03 7.577384226293682445e+01
9.703485965783693246e+01 1.215198075636745443e+03 7.611579507714452575e+01
9.905302134134385028e+01 1.211454775681244882e+03 7.535625201244360483e+01
1.011948835798578443e+02 1.215694218784546138e+03 7.569682005083859622e+01
1.033505101894452309e+02 1.219935303727949758e+03 7.603599991918602541e+01
1.055405144093954419e+02 1.225176487386341705e+03 7.651078913199953035e+01
1.077253587002839623e+02 1.229421056962979492e+03 7.684702634411164013e+01
1.098277211481503315e+02 1.229671794156383839e+03 7.663528781125447153e+01
1.120332047796872530e+02 1.233918825272279037e+03 7.696944635100510368e+01
1.142799256982180367e+02 1.239166773219024890e+03 7.743852336583003648e+01
1.165146270220649285e+02 1.243417288968207458e+03 7.776973925822250067e+01
1.187630778528588564e+02 1.247669444546637578e+03 7.809957036492997418e+01
1.208946579930351959e+02 1.247923666373329070e+03 7.788488918471460920e+01
1.231981106875532674e+02 1.253178380406627412e+03 7.834825248303644685e+01
1.253382993452134286e+02 1.253433628923800143e+03 7.813270429967235486e+01
1.276297324549279608e+02 1.257690910760714132e+03 7.845820647456656616e+01
1.297767807793387931e+02 1.257946977392570261e+03 7.824196742280574313e+01
1.319238441910366646e+02 1.258203045823804359e+03 7.802572685153526777e+01
1.340708925253278494e+02 1.258459112456838966e+03 7.780948779877934385e+01
1.362179559271453968e+02 1.258715180886894359e+03 7.759324722850396938e+01
1.385970459725961916e+02 1.263978915771833954e+03 7.804899273345913002e+01
1.407526877469644830e+02 1.264236007297150536e+03 7.783188819606903053e+01
1.429083445888591086e+02 1.264493100619487905e+03 7.761478214115948049e+01
1.450640014406340867e+02 1.264750193943003751e+03 7.739767608525480114e+01
1.472196432150023497e+02 1.265007285468320333e+03 7.718057154786470164e+01
1.491002911453519175e+02 1.260251586077343291e+03 7.629580835841500175e+01
1.515309569086719534e+02 1.265521472114173548e+03 7.674635943705050067e+01
1.533944028814606497e+02 1.260763721140433290e+03 7.586332873538370336e+01
1.558422555249348704e+02 1.266035656961827499e+03 7.631214884475082272e+01
1.579978972894228093e+02 1.266292748485965603e+03 7.609504430835582411e+01
1.601535541411977874e+02 1.266549841809481450e+03 7.587793825245117318e+01
1.626357805461088333e+02 1.271825877198878061e+03 7.632329643315375733e+01
1.648000308280805370e+02 1.272083995413497405e+03 7.610532489361000330e+01
1.672393012500780287e+02 1.276358908992644956e+03 7.641593769696126515e+01
1.694104262860874996e+02 1.276617847121325667e+03 7.619727376951112774e+01
1.719425097216999632e+02 1.281899828685517605e+03 7.663761061074964687e+01
1.741222281977865407e+02 1.282159791706480064e+03 7.641808119866536231e+01
1.766044658201694801e+02 1.286439829747037038e+03 7.672436657884566102e+01
1.791777975458388994e+02 1.291726731007020362e+03 7.716054721891589452e+01
1.817683316502634057e+02 1.297015683418776462e+03 7.759499914338326221e+01
1.843760522136478812e+02 1.302306686046086497e+03 7.802771632640221355e+01
1.869184589928487128e+02 1.306593900131941609e+03 7.832794178575642263e+01
1.891377072873616783e+02 1.306858577656694024e+03 7.810443114495191708e+01
1.917866918636931928e+02 1.312154501134402153e+03 7.853299625519326810e+01
1.940145336081636174e+02 1.312420203552614794e+03 7.830862012875948608e+01
1.966892980736517984e+02 1.317719202136980357e+03 7.873458501391328923e+01
1.993812494192942211e+02 1.323020250505910099e+03 7.915881892979868439e+01
2.016262780439187736e+02 1.323288002708686463e+03 7.893271183409652281e+01
2.043440402945520020e+02 1.328592128922173742e+03 7.935435002036305718e+01
2.070789588306995483e+02 1.333898301751334657e+03 7.977425651407264695e+01
2.098310646868276308e+02 1.339206523937550855e+03 8.019243579883155348e+01
2.126003871479773011e+02 1.344516799933416451e+03 8.060887731598018036e+01
2.153868964794007184e+02 1.349829125712667519e+03 8.102358786485550013e+01
2.188093732116034289e+02 1.361193292422207378e+03 8.220867344948115374e+01
2.211163047576204121e+02 1.361468427445576481e+03 8.197633182758278281e+01
2.239560938466202913e+02 1.366787107126927822e+03 8.238568014311019283e+01
2.262716188327143811e+02 1.367063267042578900e+03 8.215247303657761790e+01
2.297972469896467373e+02 1.378439736055847334e+03 8.332716975968676820e+01
2.321316775320540273e+02 1.378718150733104721e+03 8.309205858815309398e+01
2.350333691212521217e+02 1.384044213666038786e+03 8.349516860530420104e+01
2.379522178569851860e+02 1.389372322356148061e+03 8.389655446239609660e+01
2.410051726975356985e+02 1.395712424551502863e+03 8.442349982947834519e+01
2.439601138883683973e+02 1.401044837791264172e+03 8.482125064043842144e+01
2.463306368870036920e+02 1.401327557017048321e+03 8.458250443264506657e+01
2.494334336732256077e+02 1.407673603585570163e+03 8.510442999951735032e+01
2.518142989527907787e+02 1.407957556278255424e+03 8.486464217333289639e+01
2.555754179398909116e+02 1.419362110504985367e+03 8.601562535301437151e+01
2.587383989603373493e+02 1.425715334917004611e+03 8.653148948054598577e+01
2.611484517872794413e+02 1.426002768647756966e+03 8.628876204303736586e+01
-1.685606299453780821e+01 1.245713725855335952e+03 9.152671287642692732e+01
-1.507961227983207664e+01 1.250906683172131352e+03 9.203446582973177215e+01
-1.291536576227186117e+01 1.251164800937790233e+03 9.181649466931909842e+01
-1.104072346854691489e+01 1.255373251203670179e+03 9.217702367031944277e+01
-8.869602196948960682e+00 1.255632188883390199e+03 9.195836012200041409e+01
-6.422626199710862238e+00 1.251939154235944670e+03 9.116258118708603320e+01
-4.258379682150632561e+00 1.252197272001603551e+03 9.094461002667338789e+01
-1.766502755270764169e+00 1.247513374620913282e+03 9.000697428436598102e+01
7.081835369237694522e-01 1.242827427007876850e+03 8.907106988946296156e+01
3.414027345458109153e+00 1.234184176277627785e+03 8.756255176824188879e+01
5.787088235428939242e+00 1.230482326422932147e+03 8.677421525437543437e+01
7.911797385979056685e+00 1.230735728784523189e+03 8.656022608293534404e+01
1.003650654640951245e+01 1.230989131147292483e+03 8.634623691050015282e+01
1.216121569695962989e+01 1.231242533508883298e+03 8.613224773906006249e+01
1.407195442686142428e+01 1.235455288557344829e+03 8.648914321026217067e+01
1.594467029473540265e+01 1.240659727129528164e+03 8.698719895262499335e+01
1.788463049123900106e+01 1.244875967261415781e+03 8.734115139634269553e+01
2.003168635435319089e+01 1.245132034792371542e+03 8.712491158532458257e+01
2.217874222734773326e+01 1.245388102324505780e+03 8.690867177331139715e+01
2.432579810034227563e+01 1.245644169856640019e+03 8.669243196129821172e+01
2.647285396345645125e+01 1.245900237387596007e+03 8.647619215028009876e+01
2.861990983645099362e+01 1.246156304919730246e+03 8.625995233826691333e+01
3.056827080074646830e+01 1.251369765025444849e+03 8.675039142446564711e+01
3.272392011381808885e+01 1.251626857449861063e+03 8.653328612781825768e+01
3.506108498425761155e+01 1.246924508414054344e+03 8.561123214396513958e+01
3.720814084737178717e+01 1.247180575945010105e+03 8.539499233294705505e+01
3.935519672036632954e+01 1.247436643477144344e+03 8.517875252093386962e+01
4.150225258348051938e+01 1.247692711008100332e+03 8.496251270991575666e+01
4.364930845647506175e+01 1.247948778540234571e+03 8.474627289790257123e+01
4.579636432946958990e+01 1.248204846072368809e+03 8.453003308588938580e+01
5.012643248084361147e+01 1.165038960076094781e+03 7.255792242877308240e+01
5.212909595233724502e+01 1.165277806721536535e+03 7.235622503559000052e+01
5.413175187524718268e+01 1.165516652466700407e+03 7.215452840265925261e+01
5.621773554966920017e+01 1.161780564253820785e+03 7.139510664482889979e+01
5.821351671854139909e+01 1.162018590084923517e+03 7.119410239980453525e+01
6.020929789729393633e+01 1.162256615917204272e+03 7.099309815378509825e+01
6.220507907604648778e+01 1.162494641749485254e+03 7.079209390776563282e+01
6.420086778362203006e+01 1.162732668479687391e+03 7.059108890348397836e+01
6.619664896237456730e+01 1.162970694311968373e+03 7.039008465746451293e+01
6.815035844266446929e+01 1.167188574484581068e+03 7.074265045064427682e+01
7.015302190427777873e+01 1.167427421128844571e+03 7.054095305845626740e+01
7.212736339866461321e+01 1.171647761730084767e+03 7.089144279450772501e+01
7.411545416808590403e+01 1.175869742369746064e+03 7.124054589088851230e+01
7.611730220857518248e+01 1.180093363524027382e+03 7.158826532692455658e+01
7.813289952184196352e+01 1.184318624718980118e+03 7.193459810354548267e+01
8.016306199960621370e+01 1.184560751019488407e+03 7.173013115973202503e+01
8.219929132922686676e+01 1.188788472640818554e+03 7.207438789896906428e+01
8.424926995138572750e+01 1.193017834305177075e+03 7.241725797680092569e+01
8.631299828727699719e+01 1.197248835581573758e+03 7.275874516540761761e+01
8.839048345440983212e+01 1.201481477800098446e+03 7.309884493335181332e+01
9.044816000597106154e+01 1.201726885552694057e+03 7.289160692138847253e+01
9.255637403705925692e+01 1.206959410453522878e+03 7.336594647447878970e+01
9.466996694348378583e+01 1.211196358802689247e+03 7.370241157423635059e+01
9.679729405515942631e+01 1.215434945395506247e+03 7.403749153209830069e+01
9.881624135742919179e+01 1.211690862122367434e+03 7.328482132374313096e+01
1.009573179771803382e+02 1.215931088543306942e+03 7.361851650579237116e+01
1.030373374768941517e+02 1.216179161016306807e+03 7.340902823338214489e+01
1.053011819166250973e+02 1.225415118859868244e+03 7.441702824000469718e+01
1.074852408042880541e+02 1.229660471539238188e+03 7.474639448136355213e+01
1.095876032521544232e+02 1.229911208732642535e+03 7.453465594850638354e+01
1.117923016948746096e+02 1.234159022737489295e+03 7.486194539322409014e+01
1.140380409121293042e+02 1.239407949510049093e+03 7.532243415613336879e+01
1.162719568316221626e+02 1.243659248363089318e+03 7.564677906790035422e+01
1.185196224747278251e+02 1.247912186829345728e+03 7.596974108944712611e+01
1.206512026149041645e+02 1.248166408656037220e+03 7.575505990923176114e+01
1.229536733926088488e+02 1.253422101730055829e+03 7.620983307004541984e+01
1.250938620502690100e+02 1.253677350247228560e+03 7.599428488668132786e+01
1.272340356305224276e+02 1.253932596966202027e+03 7.577873822183175889e+01
1.295315582955776392e+02 1.258191481604950013e+03 7.609667891478179058e+01
1.316786217072755107e+02 1.258447550036184111e+03 7.588043834351131522e+01
1.338256700415666955e+02 1.258703616669218718e+03 7.566419929075539130e+01
1.359727334433842429e+02 1.258959685099274111e+03 7.544795872048001684e+01
1.381197817776754277e+02 1.259215751732308718e+03 7.523171966772409291e+01
1.402668451794929751e+02 1.259471820162364338e+03 7.501547909744871845e+01
1.424138935137841599e+02 1.259727886795398945e+03 7.479924004469282295e+01
1.445609569254820599e+02 1.259983955226632816e+03 7.458299947342234759e+01
1.467080052498928637e+02 1.260240021858488944e+03 7.436676042166152456e+01
1.486358468003296878e+02 1.256485073144575608e+03 7.362326398275371275e+01
1.507760203805831338e+02 1.256740319863549075e+03 7.340771731790414378e+01
1.531491803976994959e+02 1.261008225352813042e+03 7.371804022735975082e+01
1.552962287319906807e+02 1.261264291985847649e+03 7.350180117460382689e+01
1.574432921338082281e+02 1.261520360415903269e+03 7.328556060432845243e+01
1.599073499572890000e+02 1.266795324846550329e+03 7.372406150238379041e+01
1.620630068090639497e+02 1.267052418170066176e+03 7.350695544647911106e+01
1.645528449428956606e+02 1.272330457276380457e+03 7.394285989162696637e+01
1.667170952347477169e+02 1.272588575492178279e+03 7.372488835108813987e+01
1.691624549965486040e+02 1.276865092088066149e+03 7.402793778690264048e+01
1.716935567320134055e+02 1.282148052476946987e+03 7.445968638609772938e+01
1.741681344115419279e+02 1.286428053492394156e+03 7.475979505915142909e+01
1.763547276416662157e+02 1.286688836427417755e+03 7.453957325916076115e+01
1.793128499589294620e+02 1.297003815031197973e+03 7.561498208912612995e+01
1.815166300692079631e+02 1.297266647750785523e+03 7.539302931986708245e+01
1.841233689313163495e+02 1.302558629203909732e+03 7.581715825097037964e+01
1.870765429203927965e+02 1.311876799587325650e+03 7.675573272747959663e+01
1.888842388173418385e+02 1.307111303702343548e+03 7.588700398435935313e+01
1.915322414768599515e+02 1.312408206220771717e+03 7.630697895709255363e+01
1.941974159490059151e+02 1.317707156726742824e+03 7.672522447807685353e+01
1.968797923688324545e+02 1.323008158814298667e+03 7.714173751227332332e+01
1.995793707363394844e+02 1.328311212483439249e+03 7.755651805968196300e+01
2.022961207020655365e+02 1.333616314353903590e+03 7.796956727962137279e+01
2.050300577623546019e+02 1.338923465795150832e+03 7.838088740601270388e+01
2.073008968620238193e+02 1.339194296271171652e+03 7.815218081937888428e+01
2.095717057969993391e+02 1.339465123149615465e+03 7.792347727076926844e+01
2.123400467724102043e+02 1.344776377756389138e+03 7.833133242159473753e+01
2.151255746180948165e+02 1.350089682146548284e+03 7.873745660414695635e+01
2.185458916508232505e+02 1.361456002229673231e+03 7.990364841365112625e+01
2.208528231968402338e+02 1.361731137253042334e+03 7.967130679175275532e+01
2.236916303690267398e+02 1.367050795975113715e+03 8.007206496977201482e+01
2.265476244312478400e+02 1.372372504482927070e+03 8.047109217752779387e+01
2.295306238137073933e+02 1.378705578276492588e+03 8.099466082109933041e+01
2.324227404672092803e+02 1.384031594926874959e+03 8.139004995755655614e+01
2.353320138559322174e+02 1.389359657766600776e+03 8.178371116077943270e+01
2.383734486328920354e+02 1.395699700827919060e+03 8.230139450863947559e+01
2.407354083363833013e+02 1.395981398756641283e+03 8.206351074944629431e+01
2.436893676115310825e+02 1.401314791035997359e+03 8.245267143277044397e+01
2.460598906101663772e+02 1.401597510261781508e+03 8.221392522497708910e+01
2.491615096125989623e+02 1.407944731164293444e+03 8.272554714436381573e+01
2.529015930588985839e+02 1.419349188026908905e+03 8.385953381657810723e+01
-2.100760329869913789e+01 1.240511255228419259e+03 8.908818006777980258e+01
-1.925791836878380536e+01 1.245702116244097169e+03 8.958994161207490947e+01
-1.710226717844659561e+01 1.245959208892404604e+03 8.937283612635954455e+01
-1.494661410096347254e+01 1.246216301765781282e+03 8.915573045058104640e+01
-1.316255164745673767e+01 1.251411262800673057e+03 8.965402966733606149e+01
-1.099830512989650799e+01 1.251669380566331711e+03 8.943605850692341619e+01
-8.834058612336292526e+00 1.251927498331990364e+03 8.921808734651074246e+01
-6.324009319853956868e+00 1.247244672361367293e+03 8.828730850572935651e+01
-4.168360016662674639e+00 1.247501764784605029e+03 8.807020321007706798e+01
-1.684098584243429286e+00 1.242815863239161899e+03 8.714202157258327475e+01
7.189729312144237383e-01 1.239116715811817130e+03 8.635761263372188523e+01
3.170571751789779569e+00 1.234426918775242029e+03 8.543272060716651595e+01
5.544418044986173300e+00 1.230724285817813779e+03 8.465125506405331635e+01
7.669127195536290742e+00 1.230977688179404822e+03 8.443726589261322601e+01
9.793836355966746510e+00 1.231231090542174115e+03 8.422327672017803479e+01
1.191854550651686395e+01 1.231484492903764931e+03 8.400928754873794446e+01
1.382849883319309470e+01 1.235698031054959074e+03 8.435931204918679782e+01
1.570023321532828220e+01 1.240903448238050487e+03 8.484878142522649114e+01
1.784041433428507162e+01 1.241158695856123586e+03 8.463323400111966066e+01
1.998059545324188235e+01 1.241413943474196458e+03 8.441768657701283018e+01
2.193351974358657941e+01 1.245632606536885760e+03 8.476338326528741618e+01
2.408057561658112178e+01 1.245888674069019999e+03 8.454714345327423075e+01
2.622763147969529740e+01 1.246144741599975987e+03 8.433090364225611779e+01
2.837468735268983977e+01 1.246400809132110226e+03 8.411466383024293236e+01
3.052175075450737296e+01 1.246656877562165846e+03 8.389842325996755790e+01
3.266880662750191533e+01 1.246912945094300085e+03 8.368218344795437247e+01
3.481586250049645770e+01 1.247169012626434323e+03 8.346594363594115862e+01
3.696291836361063332e+01 1.247425080157390084e+03 8.324970382492307408e+01
3.910997423660517569e+01 1.247681147689524323e+03 8.303346401290988865e+01
4.125703009971936552e+01 1.247937215220480311e+03 8.281722420189177569e+01
4.352257266459921681e+01 1.244221665472444101e+03 8.204666643234250500e+01
4.555114184570843605e+01 1.248449350284748789e+03 8.238474457786540484e+01
4.780293490251279565e+01 1.244732160708590072e+03 8.161557158412884405e+01
4.994311602146957796e+01 1.244987408326663171e+03 8.140002416002204200e+01
5.187857478543925538e+01 1.254186174100160997e+03 8.242546019339027907e+01
5.598979044390788573e+01 1.162007841694678518e+03 6.940096643243978747e+01
5.798557161278008465e+01 1.162245867525781250e+03 6.919996218741542293e+01
5.998135279153262189e+01 1.162483893358062005e+03 6.899895794139598593e+01
6.197713397028517335e+01 1.162721919190342987e+03 6.879795369537652050e+01
6.397292267786071562e+01 1.162959945920545124e+03 6.859694869109486604e+01
6.596870385661325997e+01 1.163197971752826106e+03 6.839594444507540061e+01
6.792162814695795703e+01 1.167416634815515408e+03 6.874164113334998660e+01
6.992429160857125225e+01 1.167655481459778912e+03 6.853994374116197719e+01
7.189784748532370884e+01 1.171876605377532314e+03 6.888356063073990754e+01
7.388515306479979472e+01 1.176099368907270446e+03 6.922579462221554536e+01
7.588621570206350953e+01 1.180323773164284148e+03 6.956664308749833481e+01
7.790102782651355540e+01 1.184549817248188447e+03 6.990610676908630694e+01
7.993119030427780558e+01 1.184791943548696736e+03 6.970163982527284929e+01
8.196663423067290921e+01 1.189020448272759040e+03 7.003902559375666215e+01
8.401582766401502056e+01 1.193250592826069123e+03 7.037502657655554117e+01
8.607877038114344259e+01 1.197482377420104058e+03 7.070964090881648190e+01
