5.149735277538101030e+01 1.237124069104227829e+03 7.368426917901314255e+01
5.370472195743981558e+01 1.233396699627926864e+03 7.294226951707565831e+01
5.716247850103937367e+01 1.163015597214089667e+03 6.336490281491614951e+01
5.915854564382155445e+01 1.163251411272696487e+03 6.316413128186783865e+01
6.115461278660373523e+01 1.163487225331303307e+03 6.296335974881952779e+01
6.309584612509367929e+01 1.167704707980378998e+03 6.328807820305635801e+01
6.509878900695764514e+01 1.167941334334275780e+03 6.308661508371483251e+01
6.710173187893983027e+01 1.168177960687005225e+03 6.288515196536724261e+01
6.907046837998025524e+01 1.172398692300752828e+03 6.320710597103465034e+01
7.105296389784223265e+01 1.176621049396947001e+03 6.352767603586440259e+01
7.306965824798800213e+01 1.176859300340256823e+03 6.332482974493038341e+01
7.507278098422086998e+01 1.181084094321199927e+03 6.364332506075342621e+01
7.708965496387429539e+01 1.185310513104587926e+03 6.396043532024140177e+01
7.912010833196717385e+01 1.185550389529222912e+03 6.375620509834271843e+01
8.115761728250345186e+01 1.189779245876148025e+03 6.407124171643636146e+01
8.320887771232885655e+01 1.194009726812532108e+03 6.438489517181653810e+01
8.527388939545653557e+01 1.198241832552528649e+03 6.469716356986771189e+01
8.735266031038533185e+01 1.202475563560771889e+03 6.500804991281773937e+01
8.945383158881215024e+01 1.207708977705825873e+03 6.544667586337959619e+01
9.156182438248632138e+01 1.211946160967592959e+03 6.575462296582585964e+01
9.363526618705523674e+01 1.212191116017821741e+03 6.554606881408051322e+01
9.576388618921851048e+01 1.216430736163170195e+03 6.585194116851403123e+01
9.784420372298745860e+01 1.216676503507521829e+03 6.564269543146940578e+01
9.999346580698366438e+01 1.220918562534430293e+03 6.594648962453027252e+01
1.020806440002673412e+02 1.221165140392581861e+03 6.573655381794890218e+01
1.044366224908541199e+02 1.234404950054835581e+03 6.718950338392698995e+01
1.065461619033684713e+02 1.234654169652710834e+03 6.697731840637860046e+01
1.087762685459432248e+02 1.239902815898487916e+03 6.740297747677701068e+01
1.108944026397211076e+02 1.240153050866351123e+03 6.718992801561662986e+01
1.130125367236172167e+02 1.240403285833046994e+03 6.697687855545021307e+01
1.151306708075133827e+02 1.240653520799742864e+03 6.676382909528376786e+01
1.173727704140946173e+02 1.244906547590471973e+03 6.705828536010849916e+01
1.194977802370725328e+02 1.245157594852458033e+03 6.684454431364883931e+01
1.216228051494992712e+02 1.245408643897101456e+03 6.663080174943877410e+01
1.237478149724771583e+02 1.245659691159087515e+03 6.641706070297911424e+01
1.258728247954551023e+02 1.245910738421073575e+03 6.620331965651945438e+01
1.279978346184330178e+02 1.246161785683059634e+03 6.598957861005982295e+01
1.301228595209780110e+02 1.246412834726535721e+03 6.577583604684366492e+01
1.322478693439558981e+02 1.246663881988521553e+03 6.556209500038403348e+01
1.341939077513579264e+02 1.242905639066488675e+03 6.484638091729107146e+01
1.363120418451358375e+02 1.243155874034351882e+03 6.463333145613069064e+01
1.386229138924566939e+02 1.247417025555969758e+03 6.492087034424858416e+01
1.409475376416769166e+02 1.251679801456257110e+03 6.520702793464965907e+01
1.430794232037366100e+02 1.251931661013533130e+03 6.499259530189681300e+01
1.452113087657963320e+02 1.252183520570809151e+03 6.477816266914393850e+01
1.473432093975413295e+02 1.252435381908408090e+03 6.456372852062852985e+01
1.494750949596010230e+02 1.252687241465684110e+03 6.434929588787565535e+01
1.518994861931969353e+02 1.257958840604780107e+03 6.475541121569679603e+01
1.540399664266384434e+02 1.258211715530876972e+03 6.454011410032589424e+01
1.564282058109420745e+02 1.262482006939172152e+03 6.481987301386146783e+01
1.588938514691469663e+02 1.267758479848841489e+03 6.522183882491725626e+01
1.613766866850949100e+02 1.273036983281952416e+03 6.562207755647344243e+01
1.635412470700670724e+02 1.273292703021303623e+03 6.540435837381070883e+01
1.659810695611029985e+02 1.277569088425134851e+03 6.567892886500862915e+01
1.685051740574912742e+02 1.282852467622219820e+03 6.607501468817338264e+01
1.716967445124537335e+02 1.297188030344346998e+03 6.757391013812693359e+01
1.739008403897348671e+02 1.297448420780740662e+03 6.735221433502366040e+01
1.764834039469167237e+02 1.302738706054452223e+03 6.774242203529402673e+01
1.790057350634347699e+02 1.307024839211340804e+03 6.800869161809160346e+01
1.812253164307465454e+02 1.307287059093335529e+03 6.778543822932056173e+01
1.838491344026556362e+02 1.312582218136452866e+03 6.817149641381951142e+01
1.860773104413491694e+02 1.312845453387268208e+03 6.794737854243044239e+01
1.883054714004757102e+02 1.313108686856593522e+03 6.772326218779784313e+01
1.909636829224994585e+02 1.318407909370683910e+03 6.810585903933164786e+01
1.936390840022663724e+02 1.323709162408215889e+03 6.848672881136590718e+01
1.963316742098173222e+02 1.329012446397588974e+03 6.886586773242751747e+01
1.990414688396989220e+02 1.334317762906094003e+03 6.924327617149660341e+01
2.022328671961810187e+02 1.344665158676598821e+03 7.022221432351685166e+01
2.045125961835983048e+02 1.344934484358848522e+03 6.999291107317603178e+01
2.077555625694967034e+02 1.355287972341156546e+03 7.096666233936102230e+01
2.100525110489299436e+02 1.355559332322860655e+03 7.073562709126511550e+01
2.123494595283631270e+02 1.355830692304564991e+03 7.050459184316920869e+01
2.152552671042888903e+02 1.362156202189036776e+03 7.099227920616121423e+01
2.175625291874038965e+02 1.362428780613092385e+03 7.076020657912246747e+01
2.203943832284976736e+02 1.367748517140109016e+03 7.112533784845768992e+01
2.238832568852503755e+02 1.379128092981080499e+03 7.220434948990669000e+01
2.262180219148108336e+02 1.379403920585129072e+03 7.196951051868899185e+01
2.291031629164953358e+02 1.384729952398600972e+03 7.232928199599120944e+01
2.320055234101958206e+02 1.390058018511527052e+03 7.268732147553828327e+01
2.350385622738008351e+02 1.396398559416592434e+03 7.316221146306551759e+01
2.379770206003080375e+02 1.401730889864132450e+03 7.351662200155220717e+01
2.410495949573475229e+02 1.408076101465118882e+03 7.398753537851186479e+01
-2.984653617058812358e+01 1.231772934089980026e+03 8.023168528022483770e+01
-2.771464495616120871e+01 1.232024794315022973e+03 8.001725207893676384e+01
-2.600473361928013105e+01 1.237213076316590104e+03 8.048654684810645676e+01
-2.386424773347143002e+01 1.237465951910453896e+03 8.027124916420035561e+01
-2.172375996024639733e+01 1.237718827727295775e+03 8.005595129045121894e+01
-1.958327407443769630e+01 1.237971703321159566e+03 7.984065360654511778e+01
-1.744278630121267781e+01 1.238224579138001673e+03 7.962535573279595269e+01
-1.530230041540397679e+01 1.238477454731865464e+03 7.941005804888985153e+01
-1.316181264217894409e+01 1.238730330548707343e+03 7.919476017514071486e+01
-1.102132486895392560e+01 1.238983206365549222e+03 7.897946230139157819e+01
-8.880837095728892905e+00 1.239236082182391101e+03 7.876416442764241310e+01
-6.740353097336509336e+00 1.239488957553276805e+03 7.854886693357934746e+01
-4.263849117485207785e+00 1.234795255902086183e+03 7.765848762115840032e+01
-1.870021723522157231e+00 1.231089041638170784e+03 7.690468172145196490e+01
2.549918644066337947e-01 1.231340089344945454e+03 7.669094029630016962e+01
2.380005462217198442e+00 1.231591137052887689e+03 7.647719887015441032e+01
4.746322369951329279e+00 1.227881672718234313e+03 7.572616007300513274e+01
6.864460228680101750e+00 1.228131908130886359e+03 7.551311023315261650e+01
8.982594312576239304e+00 1.228382143097582230e+03 7.530006077298619971e+01
1.088005983369592400e+01 1.232595327882321953e+03 7.562223316755932956e+01
1.300507343150648865e+01 1.232846375590264188e+03 7.540849174141357025e+01
1.513008325448440416e+01 1.233097422852250247e+03 7.519475069495393882e+01
1.725510061724585142e+01 1.233348471004981093e+03 7.498100889011604409e+01
1.938011044022376694e+01 1.233599518266967152e+03 7.476726784365638423e+01
2.150512780298520710e+01 1.233850566419698225e+03 7.455352603881848950e+01
2.363013763584489624e+01 1.234101613682851621e+03 7.433978499136489404e+01
2.575515499860632218e+01 1.234352661835582694e+03 7.412604318652699931e+01
2.788016482158423770e+01 1.234603709097568753e+03 7.391230214006736787e+01
2.984639901849270416e+01 1.238825018168408405e+03 7.422755753662579536e+01
3.197829212033593649e+01 1.239076878616429440e+03 7.401312414549468599e+01
3.411017768239562997e+01 1.239328738173705688e+03 7.379869151274183992e+01
3.624207078423887651e+01 1.239580598621726722e+03 7.358425812161070212e+01
3.850523655582441762e+01 1.235858948079733864e+03 7.284359463263436396e+01
4.063024637880233314e+01 1.236109995341719923e+03 7.262985358617473253e+01
4.275526375144553271e+01 1.236361043495618333e+03 7.241611178034290219e+01
4.488027357442344822e+01 1.236612090757604392e+03 7.220237073388324234e+01
4.710905312069827033e+01 1.232886377849583369e+03 7.146516593375730508e+01
4.922718721447616730e+01 1.233136612817446803e+03 7.125211647259692427e+01
5.134532129837229064e+01 1.233386847784142674e+03 7.103906701243047905e+01
5.346346292205195283e+01 1.233637083641583558e+03 7.082601679388579896e+01
5.558159701582983558e+01 1.233887318609446993e+03 7.061296733272544657e+01
5.886181446049049271e+01 1.167458765319551503e+03 6.168984305379481725e+01
6.086475734235446566e+01 1.167695391673448512e+03 6.148837993445329175e+01
6.286770775412018963e+01 1.167932018916922971e+03 6.128691605772746698e+01
6.487065063598414838e+01 1.168168645270819752e+03 6.108545293838594148e+01
6.687359350796634772e+01 1.168405271623549197e+03 6.088398982003835158e+01
6.884154663717481526e+01 1.172626783767919505e+03 6.119907232027202326e+01
7.082325878433040600e+01 1.176849921393614977e+03 6.151277088954097394e+01
7.283995313447617548e+01 1.177088172336924799e+03 6.130992459860695476e+01
7.484229249887711433e+01 1.181313746848490837e+03 6.162154840899623309e+01
7.685838332167810449e+01 1.185540945948301896e+03 6.193178904878698177e+01
7.888883668977096875e+01 1.185780822372936882e+03 6.172755882688829843e+01
8.092556226960086008e+01 1.190010459249363294e+03 6.203572394942113988e+01
8.297603932759433576e+01 1.194241720716370082e+03 6.234250589936755205e+01
8.504026785499513608e+01 1.198474606771668050e+03 6.264790468759446185e+01
8.711825539921753148e+01 1.202709118309412816e+03 6.295191953498368775e+01
8.917622678344108067e+01 1.202952245694363455e+03 6.274492145314351887e+01
9.128499850167520435e+01 1.208187649038485006e+03 6.317409551908710341e+01
9.344661783985425529e+01 1.216421060238153359e+03 6.398272460896731673e+01
9.558134528883445569e+01 1.220662274990904734e+03 6.428103235491738587e+01
9.760725290739212312e+01 1.216912594926856400e+03 6.356423313487803739e+01
9.984092613873846744e+01 1.226151773270765034e+03 6.449387229552723966e+01
1.020117512055458633e+02 1.230397252572330217e+03 6.478854921468035855e+01
1.041963428300838785e+02 1.234644358245965577e+03 6.508184144449052155e+01
1.063058822425982299e+02 1.234893577843840831e+03 6.486965646694213206e+01
1.084154216551125813e+02 1.235142797441715857e+03 6.465747148939374256e+01
1.105249610775086495e+02 1.235392017040758446e+03 6.444528651085138904e+01
1.127712776882293610e+02 1.240643669846703688e+03 6.486062583226035372e+01
1.147440399124190975e+02 1.235890456237676290e+03 6.402091655476067444e+01
1.170075458659033814e+02 1.241144139781262993e+03 6.443452691093352769e+01
1.191256950293665966e+02 1.241394376529448891e+03 6.422147593401061272e+01
1.212438291132627057e+02 1.241644611496144989e+03 6.400842647384419593e+01
1.233619632070406169e+02 1.241894846464008197e+03 6.379537701268381511e+01
1.254800972909367260e+02 1.242145081430704067e+03 6.358232755251736990e+01
1.275982313748328636e+02 1.242395316397399938e+03 6.336927809235095310e+01
1.297163654686107463e+02 1.242645551365263373e+03 6.315622863119057229e+01
1.318344995525068839e+02 1.242895786331959243e+03 6.294317917102412707e+01
1.337298946546933962e+02 1.238133432622054670e+03 6.211125175384327690e+01
1.358394340672077192e+02 1.238382652219929923e+03 6.189906677629488740e+01
1.381889168936440910e+02 1.243646493014704447e+03 6.230402927277441449e+01
1.407047120787302106e+02 1.251921746315838163e+03 6.307703409620177126e+01
1.428365976407899325e+02 1.252173605873114184e+03 6.286260146344892519e+01
1.449684832028496544e+02 1.252425465430390204e+03 6.264816883069605069e+01
1.471003838345946519e+02 1.252677326767989143e+03 6.243373468218064204e+01
1.492322693966543170e+02 1.252929186325265164e+03 6.221930204942776754e+01
1.516556816844661171e+02 1.258201760859609522e+03 6.261683035509560113e+01
1.540362468881706945e+02 1.262472018722914754e+03 6.289041086525318747e+01
1.561836179303792846e+02 1.262725707724624272e+03 6.267442064782650846e+01
1.586482844289460843e+02 1.268003156242620207e+03 6.306779756086544353e+01
1.611301404841303793e+02 1.273282635285179367e+03 6.345944738453181344e+01
1.635623038653781123e+02 1.277558988923221932e+03 6.372783796646217525e+01
1.657337399894320811e+02 1.277815520957863100e+03 6.350942719750619858e+01
1.682568653239310947e+02 1.283099875765517936e+03 6.389692410290814450e+01
1.714456943027649345e+02 1.297438170020721373e+03 6.537177213713076185e+01
1.736497901800460681e+02 1.297698560457115036e+03 6.515007633402748866e+01
1.762313745764642476e+02 1.302989821340274830e+03 6.553169512640801031e+01
1.787529225361299154e+02 1.307276734813586245e+03 6.579109508950836016e+01
1.809725039034416909e+02 1.307538954695580969e+03 6.556784170073731843e+01
1.835953425007331248e+02 1.312835089561225004e+03 6.594530910148290559e+01
1.858235185394266580e+02 1.313098324812040346e+03 6.572119123009383657e+01
1.884721413647174586e+02 1.318397505571068223e+03 6.609606705884885969e+01
1.907089120747928064e+02 1.318661756190704409e+03 6.587108470484173495e+01
1.933833337788165636e+02 1.323963985051884265e+03 6.624336368324961200e+01
1.960749450405833727e+02 1.329268244436505938e+03 6.661391558215794362e+01
1.992385859829512356e+02 1.339614543536833025e+03 6.757827089288213074e+01
2.024366206904133492e+02 1.349964905893933519e+03 6.853916675637762523e+01
2.047249745083465200e+02 1.350235250507984574e+03 6.830899598990581012e+01
2.074939375975699818e+02 1.355548648426192813e+03 6.867176565951527323e+01
2.097908860770032220e+02 1.355820008407896921e+03 6.844073041141936642e+01
2.120878345564364054e+02 1.356091368389601257e+03 6.820969516332345961e+01
2.149924671837923427e+02 1.362418048961225168e+03 6.868707622584253158e+01
2.172997292669073488e+02 1.362690627385280777e+03 6.845500359880378483e+01
2.206542171495503339e+02 1.373059473018787457e+03 6.940016283546384557e+01
2.236173236935311195e+02 1.379393061660438889e+03 6.987166238346244995e+01
2.264928910681679781e+02 1.384719053499170741e+03 7.022371132222335177e+01
2.288362507789919391e+02 1.384995896473207722e+03 6.998800786739366231e+01
2.317376321130543033e+02 1.390324938194460401e+03 7.033745844892391119e+01
2.347694960269639353e+02 1.396666649787799543e+03 7.080204212610524905e+01
2.377069751927074890e+02 1.401999955844787564e+03 7.114786375670209395e+01
-3.052951200202420523e+01 1.236950245374913493e+03 7.877855965942399052e+01
-2.838902611621550420e+01 1.237203120968777284e+03 7.856326197551788937e+01
-2.624853834299047151e+01 1.237455996785619163e+03 7.834796410176872428e+01
-2.410805245718177048e+01 1.237708872379482955e+03 7.813266641786262312e+01
-2.196756468395673778e+01 1.237961748196324834e+03 7.791736854411348645e+01
-1.982707879814803675e+01 1.238214623790188625e+03 7.770207086020738529e+01
-1.768659102492301827e+01 1.238467499607030732e+03 7.748677298645822020e+01
-1.554610513911431724e+01 1.238720375200894523e+03 7.727147530255211905e+01
-1.340561736588928454e+01 1.238973251017736402e+03 7.705617742880298238e+01
-1.126512959266426606e+01 1.239226126834578281e+03 7.684087955505384571e+01
-9.124641819439233359e+00 1.239479002651420160e+03 7.662558168130468061e+01
-6.638563802344719988e+00 1.234785340544235169e+03 7.574292868088599562e+01
-4.237077513573012766e+00 1.231079158260308077e+03 7.499530080471058113e+01
-1.849346251810700892e+00 1.227371350725690945e+03 7.424905837542328868e+01
1.294967216634290708e-02 1.231581253675024982e+03 7.456781795341305497e+01
2.386925690814194922e+00 1.227871821105038862e+03 7.382295907540432722e+01
4.505063549542967394e+00 1.228122056517691135e+03 7.360990923555178256e+01
6.623201408271739865e+00 1.228372291930343181e+03 7.339685939569926632e+01
8.741335492167877419e+00 1.228622526897039052e+03 7.318380993553284952e+01
1.085947335089664989e+01 1.228872762309691325e+03 7.297076009568030486e+01
1.297760744467453264e+01 1.229122997277554532e+03 7.275771063451995246e+01
1.509574529352154570e+01 1.229373232689039241e+03 7.254466079566134340e+01
1.721387938729944267e+01 1.229623467656902676e+03 7.233161133450099101e+01
1.933202101097909065e+01 1.229873703514343561e+03 7.211856111595631091e+01
2.145015509487522820e+01 1.230123938481039431e+03 7.190551165578986570e+01
2.356828918865309674e+01 1.230374173448902866e+03 7.169246219462951331e+01
2.568643081233277314e+01 1.230624409306343750e+03 7.147941197608483321e+01
2.780456489622889649e+01 1.230874644273039621e+03 7.126636251591838800e+01
2.976313999210539407e+01 1.235095921580379354e+03 7.157543799234235848e+01
3.188814981508330959e+01 1.235346968842365413e+03 7.136169694588269863e+01
3.401316717784474974e+01 1.235598016995096486e+03 7.114795514104480390e+01
3.613817700082266526e+01 1.235849064257082318e+03 7.093421409458514404e+01
3.826319436358411963e+01 1.236100112409813391e+03 7.072047228974724931e+01
4.038820418656203515e+01 1.236351159671799451e+03 7.050673124328761787e+01
4.263151859271413002e+01 1.232626290824903435e+03 6.977501477501505178e+01
4.488893689198788906e+01 1.227905615010393603e+03 6.891536117235017400e+01
4.699847631438398565e+01 1.228154834609436193e+03 6.870317619380784890e+01
4.910801572689831573e+01 1.228404054207311447e+03 6.849099121625945941e+01
5.130834912830538741e+01 1.224674107733226947e+03 6.776359697165057128e+01
5.341101280173794663e+01 1.224922515035812012e+03 6.755210358039539642e+01
5.551367648505225105e+01 1.225170922339564413e+03 6.734061018814625754e+01
5.863367598259001312e+01 1.167686076362634594e+03 5.968867997053416730e+01
6.063661886445398608e+01 1.167922702716531603e+03 5.948721685119264180e+01
6.263956927621971005e+01 1.168159329960006062e+03 5.928575297446681702e+01
6.464251215808366169e+01 1.168395956313902843e+03 5.908428985512529152e+01
6.660280628443094031e+01 1.172617436585945370e+03 5.939319338402313520e+01
6.861262489549493182e+01 1.172854875233964776e+03 5.919103867938233066e+01
7.059355367081857935e+01 1.177078793390283181e+03 5.949786574321751687e+01
7.258822649257479043e+01 1.181304335138776196e+03 5.980331134064928733e+01
7.461180412158587671e+01 1.181543399268120993e+03 5.959977270504379021e+01
7.662711157255493788e+01 1.185771378898554758e+03 5.990314183940077442e+01
7.865617815940538549e+01 1.190000983903820725e+03 6.020512798960388068e+01
8.069899621453762961e+01 1.194232213498499959e+03 6.050573096821449326e+01
8.275556563102473717e+01 1.198465067789130444e+03 6.080494983730085323e+01
8.480664620648120433e+01 1.198707381098468204e+03 6.059864485751646157e+01
8.688385048692418877e+01 1.202942673059175149e+03 6.089578914727667325e+01
8.898306355075067131e+01 1.208178038316586253e+03 6.131723821999068491e+01
9.104961453667073101e+01 1.208422179290034819e+03 6.110937717129502289e+01
9.320966723923842778e+01 1.216657151443288058e+03 6.190426419811242909e+01
9.534361142443921722e+01 1.220899146619001840e+03 6.219570138643351243e+01
9.743080469728994331e+01 1.221145726258643435e+03 6.198576406309564391e+01
9.960221300665259037e+01 1.226389620614849264e+03 6.239995148122173418e+01
1.017722548096805895e+02 1.230635880339376854e+03 6.268775784274586726e+01
1.038749184929948797e+02 1.230884287643129255e+03 6.247626445049672839e+01
1.060656025829535309e+02 1.235132986033849647e+03 6.276199453737862655e+01
1.081751419954678823e+02 1.235382205631724673e+03 6.254980955983023705e+01
1.102846814178639505e+02 1.235631425230767263e+03 6.233762458128788353e+01
1.123942208303783161e+02 1.235880644828642517e+03 6.212543960373949403e+01
1.145037602527744127e+02 1.236129864427685106e+03 6.191325462519716893e+01
1.166132996652887357e+02 1.236379084025560132e+03 6.170106964764877944e+01
1.187228390778030587e+02 1.236628303623435386e+03 6.148888467010036152e+01
1.208323785001991553e+02 1.236877523222477748e+03 6.127669969155803642e+01
1.229419179127135067e+02 1.237126742820353002e+03 6.106451471400964692e+01
1.250514573252278296e+02 1.237375962418228028e+03 6.085232973646125743e+01
1.271609967476239262e+02 1.237625182017270618e+03 6.064014475791890391e+01
1.292705361601382776e+02 1.237874401615145871e+03 6.042795978037051441e+01
1.313800755825343742e+02 1.238123621214188461e+03 6.021577480182818931e+01
1.334896149950486972e+02 1.238372840812063487e+03 6.000358982427977139e+01
1.355991544075630202e+02 1.238622060409938740e+03 5.979140484673138189e+01
1.377086938299591168e+02 1.238871280008981330e+03 5.957921986818905680e+01
1.404618867307630694e+02 1.252163690961219345e+03 6.094704214349039262e+01
1.425937722928227345e+02 1.252415550518495365e+03 6.073260951073754654e+01
1.447256578548824564e+02 1.252667410075771386e+03 6.051817687798467205e+01
1.468575584866274539e+02 1.252919271413370325e+03 6.030374272946926340e+01
1.492713816477472051e+02 1.258191804621051688e+03 6.069354624088524019e+01
1.514118769607557624e+02 1.258444681328638580e+03 6.047824760875786865e+01
1.540908010301241688e+02 1.267738425676782299e+03 6.134746417126751794e+01
1.562467516641474958e+02 1.267993128265822634e+03 6.113061098797930981e+01
1.587190489678789618e+02 1.273272569329378030e+03 6.151453487949035548e+01
1.611435381685276695e+02 1.277548889422430420e+03 6.177674705804273003e+01
1.633149742925816099e+02 1.277805421457071816e+03 6.155833628908678179e+01
1.658285260110402817e+02 1.283089736290032761e+03 6.193811066482641081e+01
1.686398381748697375e+02 1.292399120880529608e+03 6.279401116190288690e+01
1.711946440930761355e+02 1.297688309697095974e+03 6.316963413613459011e+01
1.733987399703572692e+02 1.297948700133489638e+03 6.294793833303131692e+01
1.759793452060118000e+02 1.303240936626097437e+03 6.332096821752199389e+01
1.785001097949710527e+02 1.307528630628910378e+03 6.357349668506157059e+01
1.807196911622828281e+02 1.307790850510905102e+03 6.335024329629052886e+01
1.833415508126645932e+02 1.313087960772918677e+03 6.371912366500981761e+01
1.855697268513580980e+02 1.313351196023734019e+03 6.349500579362074859e+01
1.882173703020312701e+02 1.318651352605288594e+03 6.386129083862238076e+01
1.904541410121066178e+02 1.318915603224924780e+03 6.363630848461525602e+01
1.931275837703462344e+02 1.324218807481352997e+03 6.400000044086985440e+01
1.958182158724749229e+02 1.329524042474301496e+03 6.436196344176133266e+01
1.989798984933154884e+02 1.339872292793524821e+03 6.530914093670585885e+01
2.021759748792503046e+02 1.350224606369521553e+03 6.625285898442169241e+01
2.044643286971834755e+02 1.350494950983572608e+03 6.602268821794987730e+01
2.072323128417483247e+02 1.355809324295908027e+03 6.637687087527902463e+01
2.095292613211815649e+02 1.356080684277612136e+03 6.614583562718311782e+01
2.124224355432870652e+02 1.362407320658092431e+03 6.661394471590716648e+01
2.147296674771497464e+02 1.362679895520335322e+03 6.638187512138742363e+01
2.175509685165782230e+02 1.368000567895138602e+03 6.673069306842796777e+01
2.203894591225059685e+02 1.373323270795672443e+03 6.707778392510203957e+01
2.233513907167913715e+02 1.379658030125597406e+03 6.753897716275477592e+01
2.262259787168106016e+02 1.384984997786855729e+03 6.788243531776228679e+01
2.285693384276345625e+02 1.385261840760892710e+03 6.764673186293259732e+01
2.321381617942394939e+02 1.396655663373797552e+03 6.867947810553556565e+01
-3.077331651075503771e+01 1.237193165629742907e+03 7.663997879882282405e+01
-2.863283062494633668e+01 1.237446041223606699e+03 7.642468111491672289e+01
-2.649234285172130399e+01 1.237698917040448578e+03 7.620938324116755780e+01
-2.435185696591260296e+01 1.237951792634312369e+03 7.599408555726145664e+01
-2.221136919268757026e+01 1.238204668451154248e+03 7.577878768351231997e+01
-2.007088330687886923e+01 1.238457544045018039e+03 7.556348999960621882e+01
-1.793039553365385075e+01 1.238710419861860146e+03 7.534819212585705372e+01
-1.578990964784514972e+01 1.238963295455723937e+03 7.513289444195095257e+01
-1.327706113216312644e+01 1.234271704951619085e+03 7.425623424758023816e+01
-1.114517179527076962e+01 1.234523564954851508e+03 7.404180123514126421e+01
-9.013282468260186420e+00 1.234775424956916368e+03 7.382736822369625429e+01
-6.604133185689590846e+00 1.231069274775952181e+03 7.308592083478004042e+01
-4.479119597760785609e+00 1.231320322482727079e+03 7.287217940962824514e+01
-2.090605072219048566e+00 1.227611734525147767e+03 7.213280753796993849e+01
2.753278650972390551e-02 1.227861969937799813e+03 7.191975769811739383e+01
2.145666870405847249e+00 1.228112204904495684e+03 7.170670823795097704e+01
4.263804729134619720e+00 1.228362440317147957e+03 7.149365839809843237e+01
6.381942587863392191e+00 1.228612675729800003e+03 7.128060855824591613e+01
8.500076671759529745e+00 1.228862910696495874e+03 7.106755909807949934e+01
1.061821453048830222e+01 1.229113146109148147e+03 7.085450925822695467e+01
1.273634862426618497e+01 1.229363381077011354e+03 7.064145979706660228e+01
1.485448647311319803e+01 1.229613616488496064e+03 7.042840995820799321e+01
1.697262056689108789e+01 1.229863851456359498e+03 7.021536049704764082e+01
1.909076219057073587e+01 1.230114087313800383e+03 7.000231027850296073e+01
2.144371590039545339e+01 1.225403606942560828e+03 6.914173287243650634e+01
2.355325532279153578e+01 1.225652826541603417e+03 6.892954789389415282e+01
2.566279473530587296e+01 1.225902046139478443e+03 6.871736291634576332e+01
2.777233414782019594e+01 1.226151265737353697e+03 6.850517793879737383e+01
2.988187357021629253e+01 1.226400485336396287e+03 6.829299296025502031e+01
3.199141298273064393e+01 1.226649704934271313e+03 6.808080798270663081e+01
3.410095239524496691e+01 1.226898924532146566e+03 6.786862300515824131e+01
3.621049181764106351e+01 1.227148144131189156e+03 6.765643802661591621e+01
3.832003123015538648e+01 1.227397363729064182e+03 6.744425304906749830e+01
4.042957818245326251e+01 1.227646584217684449e+03 6.723206731314087392e+01
4.253911760484935911e+01 1.227895803816727039e+03 6.701988233459852040e+01
4.476086158545196980e+01 1.224167513696722608e+03 6.629728483753771684e+01
4.686352525888452902e+01 1.224415920999307673e+03 6.608579144628251356e+01
4.896618894219882634e+01 1.224664328303060074e+03 6.587429805403340310e+01
5.116042997523049962e+01 1.220932789004184315e+03 6.515446689127850277e+01
5.325621037967948723e+01 1.221180383121901514e+03 6.494366584370087025e+01
5.535199831403025428e+01 1.221427978129196390e+03 6.473286403873891004e+01
5.833459500792073271e+01 1.171895771678376150e+03 5.819378006957410321e+01
6.034441362886648363e+01 1.172133210327563120e+03 5.799162536393936307e+01
6.235423977971399978e+01 1.172370649866327767e+03 5.778946990092032365e+01
6.436405839077801261e+01 1.172608088514347401e+03 5.758731519627951911e+01
6.637388454162551454e+01 1.172845528053112048e+03 5.738515973326047970e+01
6.838370315268950606e+01 1.173082966701131454e+03 5.718300502861967516e+01
7.036384866423374262e+01 1.177307665280412039e+03 5.748296153482587556e+01
7.235773811528355282e+01 1.181533987558406352e+03 5.778153563669681603e+01
7.436538657327317026e+01 1.185761935317679900e+03 5.807872579872409347e+01
7.639583993148428931e+01 1.186001811741147321e+03 5.787449557781931730e+01
7.842194545477043732e+01 1.194222705496423487e+03 5.866895585750791042e+01
8.046615783092866536e+01 1.194464207401216299e+03 5.846334170563847010e+01
8.252194408943778114e+01 1.198697842009391479e+03 5.875569094515464030e+01
8.459148926009257252e+01 1.202933102204309762e+03 5.904665532564729347e+01
8.664944557463084607e+01 1.203176227808937483e+03 5.883965875956965874e+01
8.874767947769366572e+01 1.208412568675796592e+03 5.925251892439385415e+01
9.089241407749375412e+01 1.216647477192100723e+03 6.003504706961393822e+01
9.301868418026627694e+01 1.220889438713996242e+03 6.032030680335572015e+01
9.517192398610166038e+01 1.226132277942008841e+03 6.072763427882807719e+01
9.726771193033420104e+01 1.226379872950471281e+03 6.051683247287218137e+01
9.943009462357399286e+01 1.230626100909209754e+03 6.079845892512869909e+01
1.015327583068883115e+02 1.230874508212962382e+03 6.058696553287958864e+01
1.036354219902026017e+02 1.231122915516714784e+03 6.037547214063044976e+01
1.057380856636351751e+02 1.231371322819299849e+03 6.016397874937527490e+01
1.079348621208436896e+02 1.235621614035933135e+03 6.044214574453019395e+01
1.100444015432397578e+02 1.235870833634975725e+03 6.022996076598784043e+01
1.121539409557541092e+02 1.236120053232850978e+03 6.001777578843945093e+01
1.141487403870106334e+02 1.232364952033142345e+03 5.931800518137274025e+01
1.163730197906645287e+02 1.236618492429768594e+03 5.959340583234873634e+01
1.184825592031788517e+02 1.236867712027643847e+03 5.938122085480031842e+01
1.205920986255749483e+02 1.237116931626686210e+03 5.916903587625799332e+01
1.227016380380892997e+02 1.237366151224561463e+03 5.895685089870960383e+01
1.248111774506036227e+02 1.237615370822436489e+03 5.874466592116121433e+01
1.267647224572511959e+02 1.233855395852154743e+03 5.804904483085985589e+01
1.290302562855140707e+02 1.238113810019354332e+03 5.832029596507047131e+01
1.311397957079101673e+02 1.238363029618396922e+03 5.810811098652814621e+01
1.332493351204244902e+02 1.238612249216271948e+03 5.789592600897972829e+01
1.353588745329388132e+02 1.238861468814147202e+03 5.768374103143133880e+01
1.374684139553349098e+02 1.239110688413189791e+03 5.747155605288901370e+01
1.398245333367235048e+02 1.244377495580314189e+03 5.785847813770126891e+01
1.423509467287505004e+02 1.252657495379197826e+03 5.860261566241669584e+01
1.444828322908102223e+02 1.252909354936473846e+03 5.838818302966382134e+01
1.468870969055748787e+02 1.258181849949784237e+03 5.877026249565497551e+01
1.490275771390163868e+02 1.258434724875881102e+03 5.855496538028407372e+01
1.513997150487204522e+02 1.262705733177849652e+03 5.881549390678858913e+01
1.538452339899232868e+02 1.267983102070561245e+03 5.919342290721570521e+01
1.560011846239466138e+02 1.268237804659601579e+03 5.897656972392749708e+01
1.584725027669144310e+02 1.273518221332604980e+03 5.935190470754872649e+01
1.608962087037837136e+02 1.277795321848619778e+03 5.960724632847205839e+01
1.630676448278376540e+02 1.278051853883261174e+03 5.938883555951611015e+01
1.658531144057116080e+02 1.287360149691746301e+03 6.023169865935952316e+01
1.683897670178920976e+02 1.292648285055116503e+03 6.060046112099178117e+01
1.709435939891887699e+02 1.297938449268052636e+03 6.096749706319721440e+01
1.735146102073293548e+02 1.303230644325215735e+03 6.133280311111383298e+01
1.757273158355593523e+02 1.303492051911920271e+03 6.111024130863600590e+01
1.782472971596136517e+02 1.307780526338816571e+03 6.135589920867357705e+01
1.808595829888572553e+02 1.313077596841503691e+03 6.171705516100010414e+01
1.830877590176690433e+02 1.313340832091151697e+03 6.149293729060497071e+01
1.857258287530054872e+02 1.318640948807961649e+03 6.185149884727266567e+01
1.879625994531990614e+02 1.318905199426430499e+03 6.162651649425950495e+01
1.906264683804187143e+02 1.324208363922364697e+03 6.198248403511524884e+01
1.937432193338303250e+02 1.334553488616426648e+03 6.291680613624927787e+01
1.960057740481693145e+02 1.334820785341357805e+03 6.268923033538200684e+01
1.987212110036797412e+02 1.340130042050216616e+03 6.304001098052958696e+01
2.019153291761397782e+02 1.350484306737449060e+03 6.396655216027053825e+01
2.046737695396407446e+02 1.355798643961052903e+03 6.431300641101015003e+01
2.069706878698216030e+02 1.356070000380944293e+03 6.408197419543327555e+01
2.098523735297936810e+02 1.362396589005057876e+03 6.454081436362119462e+01
2.121596356227905176e+02 1.362669167430280822e+03 6.430874173558848383e+01
2.149713328958006855e+02 1.367989796269698900e+03 6.464984017561278051e+01
2.178002495527742042e+02 1.373312459516231911e+03 6.498920567007726845e+01
2.201247009885346131e+02 1.373587068679096546e+03 6.475540407680847466e+01
2.230854576331246335e+02 1.379922998697295270e+03 6.520629100411528611e+01
2.259590665793072048e+02 1.385250941861462479e+03 6.554116118916476807e+01
2.283024262901311658e+02 1.385527784835499460e+03 6.530545773433507861e+01
2.312018495176457407e+02 1.390858777561448733e+03 6.563773238582217573e+01
2.342313634252376175e+02 1.397202830637874058e+03 6.608170250437996174e+01
-3.315760889963789282e+01 1.237183210174269561e+03 7.471669487403897847e+01
-3.101712112641286012e+01 1.237436085991111440e+03 7.450139700028984180e+01
-2.887663524060415909e+01 1.237688961584975232e+03 7.428609931638374064e+01
-2.673614746737912640e+01 1.237941837401817111e+03 7.407080144263457555e+01
-2.459566158157042537e+01 1.238194712995680902e+03 7.385550375872847439e+01
-2.245517380834539267e+01 1.238447588812522781e+03 7.364020588497933772e+01
-2.031468792253669164e+01 1.238700464406386573e+03 7.342490820107323657e+01
-1.817420014931167316e+01 1.238953340223228679e+03 7.320961032732407148e+01
-1.565177967901875888e+01 1.234261789256685688e+03 7.234067474707424594e+01
-1.351988658705728596e+01 1.234513649703539386e+03 7.212624135693710059e+01
-1.109620257355099682e+01 1.230808343690147467e+03 7.139028134418441596e+01
-8.971188975740432170e+00 1.231059391398089701e+03 7.117653991803868507e+01
-6.846175377929881734e+00 1.231310439106031936e+03 7.096279849189292577e+01
-4.449998084576066049e+00 1.227601883465569017e+03 7.022960521287828328e+01
-2.331864000679928495e+00 1.227852118432265115e+03 7.001655575271186649e+01
-2.137261419511560234e-01 1.228102353844917161e+03 6.980350591285932182e+01
1.904407941944967320e+00 1.228352588811613032e+03 6.959045645269290503e+01
4.327113371207261139e+00 1.223649257455321049e+03 6.873155152462021533e+01
6.436652793603357736e+00 1.223898477054363639e+03 6.851936654607789023e+01
8.546195971068570429e+00 1.224147697097027503e+03 6.830718118983733689e+01
1.065573539346466703e+01 1.224396916696070093e+03 6.809499621129501179e+01
1.276527480597900421e+01 1.224646136293945119e+03 6.788281123374659387e+01
1.487481422837510081e+01 1.224895355892987709e+03 6.767062625520426877e+01
1.698435740584031350e+01 1.225144575935651801e+03 6.745844089896371543e+01
1.909389682823641010e+01 1.225393795534694391e+03 6.724625592042139033e+01
2.120343624075076150e+01 1.225643015132569417e+03 6.703407094287300083e+01
2.331297566314684389e+01 1.225892234731612007e+03 6.682188596433064731e+01
2.559739960806118120e+01 1.222170476625365609e+03 6.609993322461221510e+01
2.770006329137548562e+01 1.222418883929118238e+03 6.588843983236310464e+01
2.980272696480803063e+01 1.222667291231703302e+03 6.567694644110792979e+01
3.190539064812233505e+01 1.222915698535455704e+03 6.546545304885881933e+01
3.400805433143665368e+01 1.223164105839208105e+03 6.525395965660968045e+01
3.611071046508565985e+01 1.223412512251048156e+03 6.504246702373276889e+01
3.821337414839997848e+01 1.223660919554800557e+03 6.483097363148363002e+01
4.031603783171428290e+01 1.223909326858552959e+03 6.461948023923451956e+01
4.241870150514682791e+01 1.224157734161138023e+03 6.440798684797934470e+01
4.463435301044705739e+01 1.220427851322881452e+03 6.369295149484074159e+01
4.673014095467958384e+01 1.220675446331343664e+03 6.348214968888484577e+01
4.882592889891209609e+01 1.220923041339806105e+03 6.327134788292894996e+01
5.103716017828460849e+01 1.216194726567874795e+03 6.243371376706011233e+01
5.312435345113533458e+01 1.216441306207516391e+03 6.222377644372224381e+01
5.521153918420253603e+01 1.216687884956412745e+03 6.201383987876263859e+01
5.803393976081135008e+01 1.176107027164664487e+03 5.668513792500380077e+01
6.011549177913407505e+01 1.172361301901269144e+03 5.598359077524494865e+01
6.212531792998159119e+01 1.172598741440033791e+03 5.578143531222590923e+01
6.413513654104559691e+01 1.172836180088053425e+03 5.557928060758510469e+01
6.610073977086329933e+01 1.177060033608970798e+03 5.587375048712692660e+01
6.811744166079259344e+01 1.177298285443025406e+03 5.567090343781467254e+01
7.010367210785567238e+01 1.181524575849813345e+03 5.596329855847687895e+01
7.212724973686677288e+01 1.181763639979158143e+03 5.575975992287141025e+01
7.413411493107697936e+01 1.185992368161393642e+03 5.605007952726964504e+01
7.615473903630730490e+01 1.190222721931493879e+03 5.633901426277142832e+01
7.818910717808843458e+01 1.194454699292600935e+03 5.662656753286367461e+01
8.023724186659291036e+01 1.198688303025732466e+03 5.691273610473402300e+01
8.228832244204939173e+01 1.198930616335069999e+03 5.670643112494960292e+01
8.435708434779922982e+01 1.203166656954072096e+03 5.699052493794027896e+01
8.644572935015682447e+01 1.208402956280114495e+03 5.739566220312815403e+01
8.854371313465206583e+01 1.212642449152639756e+03 5.767681677561509446e+01
9.065546347687794082e+01 1.216883568397235649e+03 5.795658665875907900e+01
9.283743798935032032e+01 1.226122532059120886e+03 5.884451375372199777e+01
9.498527086983632728e+01 1.230367914071040332e+03 5.912065432682550181e+01
9.702899879824832396e+01 1.226617720294555511e+03 5.842291165856670432e+01
9.919059822658316250e+01 1.230864728677377798e+03 5.869766754332121650e+01
1.012932619098974811e+02 1.231113135981130426e+03 5.848617415107210604e+01
1.033959255932117713e+02 1.231361543284882828e+03 5.827468075882296716e+01
1.054985892666443448e+02 1.231609950587467893e+03 5.806318736756779231e+01
1.076012529499586350e+02 1.231858357891220294e+03 5.785169397531868185e+01
1.097039166233911800e+02 1.232106765193805359e+03 5.764020058406350699e+01
1.118065803067054702e+02 1.232355172497557760e+03 5.742870719181439654e+01
1.139092439900197888e+02 1.232603579801310389e+03 5.721721379956525766e+01
1.160119076634523338e+02 1.232851987103895453e+03 5.700572040831008280e+01
1.181145713467666525e+02 1.233100394407647855e+03 5.679422701606097235e+01
1.202172350201991691e+02 1.233348801710232920e+03 5.658273362480579749e+01
1.223198987035134877e+02 1.233597209013985321e+03 5.637124023255668703e+01
1.244225623868278063e+02 1.233845616317737722e+03 5.615974684030754815e+01
1.265252260602603513e+02 1.234094023620322787e+03 5.594825344905237330e+01
1.286278897435746558e+02 1.234342430924075416e+03 5.573676005680326284e+01
1.307305534170072292e+02 1.234590838226660253e+03 5.552526666554808799e+01
1.328332171003215194e+02 1.234839245530412882e+03 5.531377327329894911e+01
1.349358807836358096e+02 1.235087652834165283e+03 5.510227988104983865e+01
1.372281342956902108e+02 1.239350096603198381e+03 5.536389412332550819e+01
1.395832744082626391e+02 1.244617879487431537e+03 5.574222635244319690e+01
1.421081212738563693e+02 1.252899440131118126e+03 5.647262277177355827e+01
1.442400068359160628e+02 1.253151299688394147e+03 5.625819013902068377e+01
1.466432922899170421e+02 1.258424770311152770e+03 5.663168069712199326e+01
1.487837725233585502e+02 1.258677645237249635e+03 5.641638358175109147e+01
1.511551270612307007e+02 1.262949434069841118e+03 5.667004060282187083e+01
1.535996669497224048e+02 1.268227778464340190e+03 5.703938164316389248e+01
1.557556175837457317e+02 1.268482481053380525e+03 5.682252845987568435e+01
1.582259565659499003e+02 1.273763873335832159e+03 5.718927453560709750e+01
1.606488792390397577e+02 1.278041754274808909e+03 5.743774559890141518e+01
1.631518778576623276e+02 1.283327005064384593e+03 5.780120570354765164e+01
1.656040224094975883e+02 1.287608338256885190e+03 5.804673752633826211e+01
1.681396959678414191e+02 1.292897449123164279e+03 5.840691201801246280e+01
1.706925436725729810e+02 1.298188589050966357e+03 5.876535812426925531e+01
1.735553368802070509e+02 1.307507984066269728e+03 5.958480700195019608e+01
1.757749182475188263e+02 1.307770203948264225e+03 5.936155361317915435e+01
1.783776302347351930e+02 1.313067234690411397e+03 5.971498514122782808e+01
1.806057911938617053e+02 1.313330468159736711e+03 5.949086878659525723e+01
1.832343021678635466e+02 1.318630546896375336e+03 5.984170441210156355e+01
1.854710577983718451e+02 1.318894795734521267e+03 5.961672357485096541e+01
1.877078284985654477e+02 1.319159046352990117e+03 5.939174122183780469e+01
1.903707182650214236e+02 1.324463186458372547e+03 5.973911985480373232e+01
1.934855110038326984e+02 1.334810262264791845e+03 6.065626507808988777e+01
1.957480657181716879e+02 1.335077558989723002e+03 6.042868927722261674e+01
1.989144416728933038e+02 1.345430728682896188e+03 6.134064703584883205e+01
2.021151961963333292e+02 1.355787959956724308e+03 6.224914592706505800e+01
2.044121446757665694e+02 1.356059319938428644e+03 6.201811067896915119e+01
2.072823116331090887e+02 1.362385857246651312e+03 6.246768494827307450e+01
2.095895737162240948e+02 1.362658435670707149e+03 6.223561232123429932e+01
2.123917273162229833e+02 1.367979028313732670e+03 6.256898330247383910e+01
2.147075539214674507e+02 1.368252618544796405e+03 6.233604922533606896e+01
2.175354914188028772e+02 1.373576257399656015e+03 6.266682582178367511e+01
2.198599428545632861e+02 1.373850866562520650e+03 6.243302422851488132e+01
2.228195245494579240e+02 1.380187967268992907e+03 6.287360484547582473e+01
2.256921544429293363e+02 1.385516885934947823e+03 6.319988707044021226e+01
2.285820037401277318e+02 1.390847839010352573e+03 6.352443634785683457e+01
2.309339581124517053e+02 1.391125697352042835e+03 6.328786841140305341e+01
-3.340141351642124334e+01 1.237426130536759501e+03 7.257811306563303333e+01
-3.126092574319621065e+01 1.237679006353601380e+03 7.236281519188389666e+01
-2.912043985738750962e+01 1.237931881947465172e+03 7.214751750797779550e+01
-2.697995208416247692e+01 1.238184757764307051e+03 7.193221963422863041e+01
-2.483946619835377589e+01 1.238437633358170842e+03 7.171692195032252926e+01
-2.269897842512874320e+01 1.238690509175012721e+03 7.150162407657339259e+01
-2.055849253932004217e+01 1.238943384768876513e+03 7.128632639266729143e+01
-1.841800476609502368e+01 1.239196260585718619e+03 7.107102851891812634e+01
-1.558827195040510105e+01 1.230547412604388455e+03 6.969464186246784720e+01
-1.346325835259455062e+01 1.230798460312330690e+03 6.948090043632208790e+01
-1.104566670633809622e+01 1.227091561473025649e+03 6.875250351529641080e+01
-8.927532622441972876e+00 1.227341796439721520e+03 6.853945405512999400e+01
-6.809394763713186194e+00 1.227592031852373793e+03 6.832640421527744934e+01
-4.691256904984427933e+00 1.227842267265025839e+03 6.811335437542493310e+01
-2.241784643914726871e+00 1.223141006958197522e+03 6.726044358089109210e+01
1.259466016165475821e-01 1.219428217643964672e+03 6.653706179631919326e+01
2.228610284930852004e+00 1.219676624947717073e+03 6.632556840407008281e+01
4.331273958363397014e+00 1.219925032250302138e+03 6.611407501281490795e+01
6.433933866845066518e+00 1.220173439108098364e+03 6.590258200025189694e+01
8.305916203371353390e+00 1.224387105394696846e+03 6.619951831246908114e+01
1.041545562576744999e+01 1.224636324993739436e+03 6.598733333392675604e+01
1.252499503828178717e+01 1.224885544591614462e+03 6.577514835637833812e+01
1.463453446067788377e+01 1.225134764190657052e+03 6.556296337783601302e+01
1.674407763814308936e+01 1.225383984233321144e+03 6.535077802159545968e+01
1.885361706053918596e+01 1.225633203832363733e+03 6.513859304305313458e+01
2.096315647305353735e+01 1.225882423430238759e+03 6.492640806550474508e+01
2.325523953876335526e+01 1.222160697089826954e+03 6.421063524393289867e+01
2.535790321219590027e+01 1.222409104392412019e+03 6.399914185267772382e+01
2.746056689551020469e+01 1.222657511696164647e+03 6.378764846042861336e+01
2.956323056894274970e+01 1.222905918998749712e+03 6.357615506917343851e+01
3.166589425225705412e+01 1.223154326302502113e+03 6.336466167692432805e+01
3.376855793557137275e+01 1.223402733606254515e+03 6.315316828467518917e+01
3.587121406922037892e+01 1.223651140018094566e+03 6.294167565179827761e+01
3.797387775253469755e+01 1.223899547321846967e+03 6.273018225954913873e+01
4.020407153956143986e+01 1.220170509541953606e+03 6.202063353307488569e+01
4.229985947391220691e+01 1.220418104549248483e+03 6.180983172811292548e+01
4.453786136105028248e+01 1.215691861271615380e+03 6.097819137596977157e+01
4.662504709411748394e+01 1.215938440020511962e+03 6.076825481101013793e+01
4.871224036696821003e+01 1.216185019660153557e+03 6.055831748767226941e+01
5.079942610003541148e+01 1.216431598409050139e+03 6.034838092271266419e+01
5.297288007934953669e+01 1.212695857306443031e+03 5.964454023660326243e+01
5.513258259038184406e+01 1.208958491614423565e+03 5.894208272208641120e+01
5.736917189115487758e+01 1.200239570048597898e+03 5.762535655012337088e+01
5.975530313517424474e+01 1.180558908514631867e+03 5.495921527317963751e+01
6.177888076418534524e+01 1.180797972643976664e+03 5.475567663757414039e+01
6.385434030720568899e+01 1.177050654662328952e+03 5.406169163173751713e+01
6.587103465735147267e+01 1.177288905605638774e+03 5.385884534080349795e+01
6.788773654728076679e+01 1.177527157439693383e+03 5.365599829149124389e+01
6.987318373056443477e+01 1.181754228269443502e+03 5.394152285452440765e+01
7.187238981498646240e+01 1.185982924685890112e+03 5.422566254965508392e+01
7.390284318307935507e+01 1.186222801110525097e+03 5.402143232775640058e+01
7.592268402340471312e+01 1.190453935304708921e+03 5.430349649575620674e+01
7.795626890028088951e+01 1.194686693089899791e+03 5.458417919834647591e+01
8.000362021807897861e+01 1.198921077352532620e+03 5.486347627465602272e+01
8.205470079353545998e+01 1.199163390661870153e+03 5.465717129487160264e+01
8.412267932857891140e+01 1.203400211810373548e+03 5.493439361230150553e+01
8.621034527709981887e+01 1.208637486639325061e+03 5.533094290753132327e+01
8.830754579781564928e+01 1.212877759934812502e+03 5.560522692238924947e+01
9.041851276933513759e+01 1.217119659708909467e+03 5.587812530997243243e+01
9.254321612956931631e+01 1.221363182290929217e+03 5.614964204271964832e+01
9.469449772192990622e+01 1.226607972630177528e+03 5.653979265021712308e+01
9.671760267527076849e+01 1.221856341570212408e+03 5.572976739604391128e+01
9.888607361039495913e+01 1.227103162647102408e+03 5.611818903830530303e+01
1.009818615546274714e+02 1.227350757655564621e+03 5.590738723234940721e+01
1.030776494988600120e+02 1.227598352664027061e+03 5.569658542639351140e+01
1.051734374332107507e+02 1.227845947671321937e+03 5.548578362143155118e+01
1.072692253774432629e+02 1.228093542679784377e+03 5.527498181547565537e+01
1.094644202275258920e+02 1.232345392960851768e+03 5.553940921212901571e+01
1.114607861863412381e+02 1.228588730915219003e+03 5.485337972032033349e+01
1.135565741305737504e+02 1.228836325923681443e+03 5.464257791436443767e+01
1.157724112675870458e+02 1.233090614870941863e+03 5.490492903637559152e+01
1.177481500091570581e+02 1.229331515939438759e+03 5.422097430344658164e+01
1.198439379533895419e+02 1.229579110947900972e+03 5.401017249749068583e+01
1.220804023076481997e+02 1.233835836781031730e+03 5.427044886062219575e+01
1.241830659909625183e+02 1.234084244084784132e+03 5.405895546837305687e+01
1.262857296643950633e+02 1.234332651387369197e+03 5.384746207711788202e+01
1.283883933477093819e+02 1.234581058691121825e+03 5.363596868486877156e+01
1.304910570211419270e+02 1.234829465993706663e+03 5.342447529361359670e+01
1.325937207044562456e+02 1.235077873297459291e+03 5.321298190136445783e+01
1.346963843877705358e+02 1.235326280601211693e+03 5.300148850911534737e+01
1.369878545279929938e+02 1.239589504900867723e+03 5.325623124595725244e+01
1.397334102557769597e+02 1.252889525326883813e+03 5.455706250401027546e+01
1.418652958178366532e+02 1.253141384884159834e+03 5.434262987125742939e+01
1.439971813798963751e+02 1.253393244441435854e+03 5.412819723850455489e+01
1.463994876731337058e+02 1.258667690673642710e+03 5.449309888871604812e+01
