2.905928401749829391e+02 1.409805158209786669e+03 1.633009917737404066e+02
2.930838555310574520e+02 1.404280706785203620e+03 1.629826237244901677e+02
2.953648504746502113e+02 1.404909477763053019e+03 1.634828244037918807e+02
-4.229763620102340838e+01 1.256001256586147747e+03 7.928417564772402670e+01
-3.868474984367958314e+01 1.251820977789091330e+03 7.936479583014130412e+01
-3.650056534238456152e+01 1.252423062343702213e+03 7.984376689245641501e+01
-3.150820937200222716e+01 1.243446848776877914e+03 7.951524783104316896e+01
-2.934043495078611841e+01 1.244044409787003815e+03 7.999062031755875068e+01
-2.439730899235797779e+01 1.235054625649955369e+03 7.965130556860756883e+01
-2.086647347119435381e+01 1.230851729010041936e+03 7.971393278666307936e+01
-1.735204757545983512e+01 1.226644308951274297e+03 7.977296151841990479e+01
-1.249097267766399000e+01 1.217631906909801501e+03 7.941565374568715185e+01
-9.288543121204440922e+00 1.214373721986792589e+03 7.954859186454125108e+01
-5.829913938126537687e+00 1.210150920971803316e+03 7.959539269588124455e+01
-2.387692023119484475e+00 1.205923597419740418e+03 7.963858777561283375e+01
-2.921223749162891181e-01 1.206501254718172277e+03 8.009812643636244900e+01
3.125483748387352989e+00 1.202267145663950942e+03 8.013592351532203395e+01
6.263912225651154131e+00 1.198991318198740373e+03 8.025483457315270641e+01
8.344713852504753504e+00 1.199564904596773658e+03 8.071113474609605021e+01
1.042551366842019434e+01 1.200138490495610085e+03 8.116743452191774111e+01
1.250631528584182206e+01 1.200712076891043353e+03 8.162373469279275184e+01
1.586812705576232929e+01 1.196462587763212468e+03 8.164929659624620228e+01
1.794072161470307947e+01 1.197033911830006673e+03 8.210379703659626216e+01
2.001331976722417494e+01 1.197605236887394540e+03 8.255829826498460022e+01
2.208591432616486827e+01 1.198176560954188744e+03 8.301279870533467431e+01
2.415850888510561845e+01 1.198747885020982949e+03 8.346729914568473419e+01
2.623110703762671392e+01 1.199319210078370816e+03 8.392180037407308646e+01
2.830370159656740725e+01 1.199890534145165020e+03 8.437630081442314633e+01
3.037629615550815743e+01 1.200461858211959225e+03 8.483080125477320621e+01
3.244889430802925290e+01 1.201033183269347091e+03 8.528530248316154427e+01
3.452148886696994623e+01 1.201604507336141296e+03 8.573980292351161836e+01
3.659408342591069641e+01 1.202175831402935501e+03 8.619430336386167824e+01
3.866668157843179188e+01 1.202747156460323367e+03 8.664880459225001630e+01
4.073927613737248521e+01 1.203318480527117572e+03 8.710330503260009039e+01
4.281187069631317854e+01 1.203889804593911776e+03 8.755780547295015026e+01
4.488446525525392872e+01 1.204461128660705981e+03 8.801230591330021014e+01
4.695706340777502419e+01 1.205032453718093848e+03 8.846680714168856241e+01
4.902966156029611966e+01 1.205603778775481715e+03 8.892130837007690047e+01
5.110225252565646770e+01 1.206175101851682257e+03 8.937580802238868216e+01
5.317485067817756317e+01 1.206746426909070124e+03 8.983030925077703444e+01
5.524744883069865864e+01 1.207317751966457990e+03 9.028481047916537250e+01
5.732003978662703503e+01 1.207889075040058515e+03 9.073931012940882113e+01
5.939263794858010215e+01 1.208460400100046400e+03 9.119381135986550646e+01
6.146523610110119762e+01 1.209031725157434266e+03 9.164831258825385873e+01
6.353782705702957401e+01 1.209603048231034791e+03 9.210281223849727894e+01
6.561042521898264113e+01 1.210174373291022675e+03 9.255731346895397849e+01
6.768302337150373660e+01 1.210745698348410542e+03 9.301181469734231655e+01
6.975561432743211299e+01 1.211317021422011067e+03 9.346631434758575097e+01
7.182821248938518011e+01 1.211888346481998951e+03 9.392081557804245051e+01
7.390081064190627558e+01 1.212459671539386818e+03 9.437531680643080279e+01
7.597340159783465197e+01 1.213030994612987342e+03 9.482981645667422299e+01
7.804599975978771909e+01 1.213602319672975227e+03 9.528431768713092254e+01
8.011859791230881456e+01 1.214173644730363094e+03 9.573881891551926060e+01
8.219118886823719095e+01 1.214744967803963618e+03 9.619331856576269502e+01
8.426378702075828642e+01 1.215316292861351485e+03 9.664781979415104729e+01
8.633638518271135354e+01 1.215887617921339370e+03 9.710232102460773262e+01
8.741514842398177620e+01 1.221361180210683870e+03 9.805053534250326663e+01
8.949594284481068485e+01 1.221934764622329794e+03 9.850683393523335951e+01
9.157674446223231257e+01 1.222508351017763061e+03 9.896313410610837025e+01
9.365754608908594037e+01 1.223081937415796119e+03 9.941943427905171404e+01
9.573834770650756809e+01 1.223655523811229386e+03 9.987573444992671057e+01
9.781914932392919582e+01 1.224229110206662654e+03 1.003320346208017213e+02
9.989995094135082354e+01 1.224802696602095921e+03 1.007883347916767178e+02
1.019807525682044229e+02 1.225376283000129206e+03 1.012446349646200616e+02
1.040615541856260791e+02 1.225949869395562246e+03 1.017009351354950724e+02
1.061423558030477068e+02 1.226523455790995513e+03 1.021572353063700831e+02
1.082231574204693345e+02 1.227097042186428780e+03 1.026135354772450938e+02
1.103039590473229339e+02 1.227670628584462065e+03 1.030698356501884376e+02
1.123847606647445900e+02 1.228244214979895105e+03 1.035261358210634484e+02
1.144655622821661893e+02 1.228817801375328372e+03 1.039824359919384307e+02
1.165463638995878455e+02 1.229391387770761639e+03 1.044387361628134414e+02
1.186271655264414449e+02 1.229964974168794924e+03 1.048950363357567852e+02
1.207079527506776060e+02 1.230538556596653507e+03 1.053513333503419602e+02
1.227887543680992621e+02 1.231112142992086774e+03 1.058076335212169710e+02
1.248695559949528615e+02 1.231685729390120059e+03 1.062639336941603148e+02
1.269503576123744892e+02 1.232259315785553326e+03 1.067202338650353255e+02
1.290311592297961170e+02 1.232832902180986366e+03 1.071765340359103362e+02
1.311119608472177447e+02 1.233406488576419633e+03 1.076328342067853185e+02
1.331927624740713725e+02 1.233980074974452918e+03 1.080891343797286623e+02
1.352735640914930002e+02 1.234553661369886186e+03 1.085454345506036731e+02
1.373543657089146279e+02 1.235127247765319453e+03 1.090017347214786838e+02
1.394351673357682273e+02 1.235700834163352511e+03 1.094580348944220276e+02
1.415159689531898550e+02 1.236274420558785778e+03 1.099143350652970383e+02
1.435967705706115112e+02 1.236848006954219045e+03 1.103706352361720207e+02
1.456775721880331389e+02 1.237421593349652312e+03 1.108269354070470314e+02
1.471536645559165493e+02 1.241969443268160830e+03 1.117199452514867204e+02
1.484933483401955812e+02 1.247514929989178881e+03 1.127253769837492854e+02
1.505889161963245328e+02 1.248092586793613691e+03 1.131849152515139423e+02
1.526844840524535414e+02 1.248670243598048501e+03 1.136444535192785992e+02
1.547800519180144931e+02 1.249247900405083556e+03 1.141039917891115891e+02
1.568756197741435017e+02 1.249825557209518365e+03 1.145635300568762460e+02
1.582645387390959684e+02 1.255384615925551088e+03 1.155797586101281382e+02
1.603683100601255092e+02 1.255964534068031526e+03 1.160410958203794536e+02
1.624720813811550215e+02 1.256544452210511736e+03 1.165024330306307405e+02
1.645758670953700005e+02 1.257124374320566403e+03 1.169637733971718916e+02
1.666796384163995413e+02 1.257704292463046613e+03 1.174251106074232069e+02
1.681177796339915176e+02 1.263276919842965981e+03 1.184521253440132540e+02
1.702297544199215906e+02 1.263859099323491591e+03 1.189152614967512278e+02
1.718223633050392891e+02 1.268439067540323549e+03 1.198338300866217452e+02
1.739409008647761823e+02 1.269023056091805529e+03 1.202984053937627067e+02
1.747938332505449068e+02 1.279610561119463227e+03 1.219087410755674767e+02
1.769287777400828645e+02 1.280199072347035781e+03 1.223769142676817552e+02
1.790637366228062604e+02 1.280787587542183019e+03 1.228450906160858409e+02
1.805904881837275866e+02 1.286384640702872957e+03 1.238915445577487020e+02
1.827336505313515431e+02 1.286975417236065368e+03 1.243615198486394746e+02
1.848768128695435280e+02 1.287566193766657989e+03 1.248314951374618857e+02
1.870199752171674561e+02 1.288156970299850627e+03 1.253014704283526299e+02
1.891631375647914126e+02 1.288747746833043038e+03 1.257714457192433741e+02
1.913062855097979309e+02 1.289338519396061201e+03 1.262414178517759495e+02
1.928904901133091698e+02 1.294951409859049363e+03 1.273004706936455221e+02
1.944910887241890407e+02 1.300568819667936168e+03 1.283631108044646680e+02
1.961081071853872118e+02 1.306190755482273971e+03 1.294293594260603868e+02
1.982758799182807934e+02 1.306788316027002793e+03 1.299047315423427449e+02
2.004436526606063182e+02 1.307385876574331405e+03 1.303801036606934645e+02
2.026114253934999283e+02 1.307983437119060227e+03 1.308554757769758794e+02
2.042694611811159859e+02 1.313616679624456765e+03 1.319307191012253497e+02
2.064454373883420715e+02 1.314216501509830778e+03 1.324078901620626993e+02
2.086214135861361569e+02 1.314816323392605000e+03 1.328850612208317443e+02
2.107974041865477375e+02 1.315416149245553470e+03 1.333622354379589297e+02
2.124964587505555755e+02 1.321060699073359274e+03 1.344464660107711325e+02
2.146806528158676031e+02 1.321662786264353144e+03 1.349254391703849478e+02
2.168648468717477442e+02 1.322264873452746997e+03 1.354044123279305154e+02
2.185967138415534237e+02 1.327918467999719951e+03 1.364958461443393958e+02
2.207891113623339834e+02 1.328522816526159431e+03 1.369766182443715934e+02
2.224584167965786605e+02 1.335194404523007051e+03 1.381966601275392463e+02
2.251738776269563687e+02 1.329731505646489040e+03 1.379381561339246218e+02
2.268629001595604109e+02 1.336408528788754666e+03 1.391625217908125478e+02
2.286538608536176298e+02 1.342078412902515311e+03 1.402669142934434490e+02
2.308643060047249946e+02 1.342687736374734413e+03 1.407516440686009673e+02
2.326798770915686987e+02 1.348364404501799299e+03 1.418614334084713846e+02
2.344345273339450557e+02 1.355059518345827883e+03 1.431001906031842736e+02
2.371171743141525781e+02 1.349587574119728288e+03 1.428344908416913768e+02
2.393358229207285603e+02 1.350199158927392773e+03 1.433210195572671637e+02
2.411200056405196221e+02 1.356902413589424896e+03 1.445662529457592882e+02
2.433484984125217636e+02 1.357516712004823830e+03 1.450549403939737658e+02
2.455769911750919903e+02 1.358131010417622747e+03 1.455436278401198820e+02
2.478054839470941317e+02 1.358745308833021681e+03 1.460323152883343596e+02
2.497047606217288376e+02 1.364445051177560572e+03 1.471604526919324485e+02
2.519414568586315681e+02 1.365061610931005134e+03 1.476509390826335562e+02
2.541781530861023271e+02 1.365678170681849451e+03 1.481414254712663592e+02
2.561102421703652681e+02 1.371386957747219412e+03 1.492767660989021010e+02
2.583551418627365592e+02 1.372005778836109130e+03 1.497690514300215341e+02
2.606000415645398220e+02 1.372624599927598865e+03 1.502613367632092718e+02
2.628449412569111132e+02 1.373243421016488583e+03 1.507536220943287049e+02
2.647636895836690769e+02 1.379983769556573861e+03 1.520283644513543209e+02
2.670184334414665273e+02 1.380605304253198028e+03 1.525228085151124446e+02
2.690178197129664568e+02 1.386332642222569120e+03 1.536729067812364065e+02
2.712807670262325246e+02 1.386956438254638670e+03 1.541691497854127988e+02
2.735437143489306209e+02 1.387580234289308237e+03 1.546653927916575526e+02
2.755297598610102341e+02 1.394339133732562459e+03 1.559548927969509577e+02
2.778025513397025179e+02 1.394965643372366458e+03 1.564532945337659839e+02
2.800753428183948017e+02 1.395592153012170456e+03 1.569516962705810670e+02
2.821419975001926446e+02 1.401338033952993783e+03 1.581165458646819388e+02
2.839479421007138171e+02 1.414258720597719730e+03 1.602205303830689331e+02
2.862486253562951788e+02 1.414892918785838219e+03 1.607250485235113047e+02
2.885493373982474168e+02 1.415527124909105396e+03 1.612295729765333476e+02
2.910580133536234371e+02 1.410007224447497947e+03 1.609257229997981540e+02
2.935470297814666765e+02 1.404481904709938817e+03 1.606175618842815425e+02
2.958280247250594357e+02 1.405110675687788216e+03 1.611177625635832555e+02
-4.185245522925271189e+01 1.256194638423701917e+03 7.701099114450171612e+01
-3.966006557473463090e+01 1.256798984781755053e+03 7.749176151953669489e+01
-3.605705160769531403e+01 1.252615719951356596e+03 7.757909564055715634e+01
-3.106802718308830435e+01 1.243638059196793392e+03 7.726758812884685312e+01
-2.890025276187219561e+01 1.244235620206919293e+03 7.774296061536243485e+01
-2.396045835113449129e+01 1.235244388881300210e+03 7.742065742589376498e+01
-2.043128860381614231e+01 1.231040768647101231e+03 7.749179042369051729e+01
-1.691852994516312947e+01 1.226832624358434259e+03 7.755933240677038043e+01
-1.206078659505777750e+01 1.217818775128390598e+03 7.721903619352013948e+01
-9.942242744197244519e+00 1.218402765414061378e+03 7.768361288024517819e+01
-5.402726246909537622e+00 1.210336486721344272e+03 7.741408553942483195e+01
-1.962171567068821787e+00 1.206108438940213773e+03 7.746579386069990392e+01
1.333980811343735695e-01 1.206686096238645632e+03 7.792533252144953337e+01
3.549338430592740679e+00 1.202451263590138751e+03 7.797163538015037432e+01
6.686434288397379078e+00 1.199174857249333627e+03 7.809735106372993130e+01
8.767235915250978451e+00 1.199748443647366912e+03 7.855365123667327509e+01
1.084803573116641928e+01 1.200322029546203339e+03 7.900995101249496599e+01
1.421638699364837066e+01 1.196074078658729377e+03 7.904581803322963651e+01
1.628898334466327924e+01 1.196645403219520404e+03 7.950031886656468316e+01
1.937848831398525817e+01 1.193355878143151131e+03 7.961559831712479252e+01
2.144452009911913137e+01 1.193925393138988966e+03 8.006865960307186469e+01
2.351055188425306142e+01 1.194494908134826801e+03 8.052172088901892266e+01
2.557658367881890626e+01 1.195064423133264881e+03 8.097478217703434211e+01
2.764261546395277946e+01 1.195633938129102717e+03 8.142784346298140008e+01
2.970864724908670951e+01 1.196203453124940552e+03 8.188090474892847226e+01
3.177467903422058271e+01 1.196772968120778614e+03 8.233396603487554444e+01
3.384071081935451275e+01 1.197342483116616449e+03 8.278702732082261662e+01
3.590674260448838595e+01 1.197911998112454285e+03 8.324008860676968879e+01
3.797277438962225915e+01 1.198481513108292347e+03 8.369314989271674676e+01
4.003880617475618919e+01 1.199051028104130182e+03 8.414621117866381894e+01
4.210483795989006239e+01 1.199620543099968245e+03 8.459927246461089112e+01
4.417086974502399244e+01 1.200190058095806080e+03 8.505233375055796330e+01
4.623690153015786564e+01 1.200759573091643915e+03 8.550539503650502127e+01
4.830293690887214098e+01 1.201329089078075413e+03 8.595845711049038584e+01
5.036896510042566888e+01 1.201898603083319813e+03 8.641151760839916562e+01
5.152310881455741765e+01 1.206357917307990192e+03 8.722683029270716304e+01
5.359570696707851312e+01 1.206929242365378059e+03 8.768133152109551531e+01
5.566830511959960859e+01 1.207500567422765926e+03 8.813583274948385338e+01
5.774089607552798498e+01 1.208071890496366450e+03 8.859033239972730200e+01
5.981349423748105210e+01 1.208643215556354335e+03 8.904483363018398734e+01
6.188609239000214757e+01 1.209214540613742201e+03 8.949933485857233961e+01
6.395868334593052396e+01 1.209785863687342726e+03 8.995383450881575982e+01
6.603128150788359108e+01 1.210357188747330611e+03 9.040833573927245936e+01
6.810387966040468655e+01 1.210928513804718477e+03 9.086283696766079743e+01
7.017647061633306294e+01 1.211499836878319002e+03 9.131733661790423184e+01
7.224906877828613005e+01 1.212071161938306886e+03 9.177183784836093139e+01
7.432166693080722553e+01 1.212642486995694753e+03 9.222633907674928366e+01
7.639425788673560191e+01 1.213213810069295278e+03 9.268083872699270387e+01
7.929341009230023474e+01 1.209871813025050642e+03 9.275437561165813349e+01
8.135944548044648172e+01 1.210441329014082157e+03 9.320743768771183113e+01
8.261204515713814089e+01 1.214927783260271553e+03 9.404434083608117589e+01
8.468464330965920794e+01 1.215499108317659420e+03 9.449884206446952817e+01
8.675724147161227506e+01 1.216070433377647305e+03 9.495334329492621350e+01
8.882983242754065145e+01 1.216641756451247829e+03 9.540784294516966213e+01
9.090243058006174692e+01 1.217213081508635696e+03 9.586234417355800019e+01
9.297502874201481404e+01 1.217784406568623581e+03 9.631684540401469974e+01
9.504761969794316201e+01 1.218355729642224105e+03 9.677134505425811994e+01
9.712021785046425748e+01 1.218927054699611972e+03 9.722584628264647222e+01
9.919281601241732460e+01 1.219498379759599857e+03 9.768034751310315755e+01
1.012654141649384485e+02 1.220069704816987723e+03 9.813484874149150983e+01
1.033380051208668249e+02 1.220641027890588248e+03 9.858934839173494424e+01
1.054105960862271445e+02 1.221212350966788790e+03 9.904384804404672593e+01
1.074831942387482400e+02 1.221783676024176657e+03 9.949834927243507821e+01
1.095557923912693354e+02 1.222355001081564524e+03 9.995285050082341627e+01
1.123499258604672661e+02 1.218984054944844502e+03 1.000033577670244966e+02
1.144159468554280465e+02 1.219553566966301560e+03 1.004564166867883586e+02
1.157735868582645935e+02 1.224068976256328142e+03 1.013163541880568204e+02
1.178461706176002508e+02 1.224640297346141324e+03 1.017708522601553369e+02
1.199187687795533179e+02 1.225211622406129209e+03 1.022253534906120223e+02
1.219913669320744418e+02 1.225782947463517075e+03 1.026798547190003745e+02
1.240639650845955373e+02 1.226354272520904942e+03 1.031343559473887268e+02
1.261365632465486044e+02 1.226925597580892827e+03 1.035888571778454121e+02
1.282091613990696999e+02 1.227496922638280694e+03 1.040433584062337644e+02
1.294536812925423135e+02 1.233016441231579620e+03 1.050190505264875611e+02
1.315344829099639412e+02 1.233590027627012887e+03 1.054753506973625434e+02
1.336152845368175690e+02 1.234163614025046172e+03 1.059316508703058872e+02
1.356960861542391967e+02 1.234737200420479439e+03 1.063879510411808980e+02
1.377768877716608245e+02 1.235310786815912707e+03 1.068442512120559087e+02
1.398576893985144238e+02 1.235884373213945764e+03 1.073005513849992525e+02
1.419384910159360516e+02 1.236457959609379031e+03 1.077568515558742632e+02
1.440192926333577077e+02 1.237031546004812299e+03 1.082131517267492455e+02
1.461000942507793354e+02 1.237605132400245566e+03 1.086694518976242563e+02
1.475775192381219938e+02 1.242153561194348640e+03 1.095556571163150608e+02
1.496648836293504417e+02 1.242728956660738049e+03 1.100133964415930592e+02
1.517522480205788895e+02 1.243304352127127686e+03 1.104711357668710576e+02
1.538396124118073658e+02 1.243879747593517095e+03 1.109288750921490561e+02
1.552055723740651558e+02 1.249432741925556911e+03 1.119311978741986735e+02
1.573011402301941644e+02 1.250010398729991721e+03 1.123907361419633304e+02
1.586917264303129116e+02 1.255570181675092044e+03 1.133984514536717398e+02
1.607954977513424524e+02 1.256150099817572482e+03 1.138597886639230552e+02
1.628992690723719647e+02 1.256730017960052692e+03 1.143211258741743421e+02
1.650030547865869437e+02 1.257309940070107359e+03 1.147824662407154932e+02
1.664346568518026004e+02 1.262881029071484591e+03 1.157991837168798526e+02
1.685466316377326734e+02 1.263463208552010201e+03 1.162623198696178264e+02
1.706586064236627465e+02 1.264045388032535811e+03 1.167254560223558002e+02
1.722525493876455016e+02 1.268625935758912647e+03 1.176372125344547186e+02
1.737317474056771118e+02 1.274210145123829534e+03 1.186643595719429669e+02
1.752273508808415841e+02 1.279798876526623189e+03 1.196951119639179666e+02
1.773622953703795417e+02 1.280387387754195743e+03 1.201632851560322166e+02
1.788825251060993082e+02 1.285982907776914089e+03 1.211994300622435645e+02
1.810256730511058265e+02 1.286573680339932253e+03 1.216694021947761399e+02
1.831688353987297830e+02 1.287164456873124664e+03 1.221393774856669125e+02
1.853119977369217679e+02 1.287755233403717284e+03 1.226093527744893237e+02
1.874551600845456960e+02 1.288346009936909923e+03 1.230793280653800679e+02
1.890246091389156220e+02 1.293955097350518372e+03 1.241262740862452318e+02
1.911759749514401108e+02 1.294548135221756183e+03 1.245980483196226345e+02
1.927700358599175274e+02 1.300164007283451156e+03 1.256503837159250878e+02
1.949296051373425200e+02 1.300759306492734595e+03 1.261239568917891489e+02
1.965482893743011630e+02 1.306381965902189449e+03 1.271816997238640710e+02
1.987160621071947446e+02 1.306979526446918271e+03 1.276570718401464575e+02
2.008838348495202695e+02 1.307577086994246883e+03 1.281324439584971628e+02
2.030516075824138795e+02 1.308174647538975705e+03 1.286078160747795778e+02
2.047113106032809924e+02 1.313808614272608111e+03 1.296745461672650777e+02
2.068872868105070779e+02 1.314408436157982123e+03 1.301517172281024841e+02
2.090632630083011634e+02 1.315008258040756346e+03 1.306288882868715291e+02
2.107558072157355582e+02 1.320651277427768491e+03 1.317028279139059919e+02
2.129399724852447662e+02 1.321253356681013656e+03 1.321817947588718312e+02
2.146571285487017633e+02 1.326903160716944512e+03 1.332611237515640710e+02
2.168494972925434752e+02 1.327507501310834868e+03 1.337418895410849586e+02
2.190418948133241486e+02 1.328111849837274121e+03 1.342226616411170994e+02
2.207033837948294490e+02 1.334781600473680328e+03 1.354303441802716748e+02
2.229055966946654053e+02 1.335388654672705115e+03 1.359132687003628917e+02
2.251078383714402662e+02 1.335995716804279027e+03 1.363961995309653616e+02
2.273100800576471556e+02 1.336602778938452730e+03 1.368791303636361931e+02
2.291027065255496495e+02 1.342273386646498921e+03 1.379750170865258951e+02
2.309117413940062988e+02 1.347948517668017985e+03 1.390744942346549919e+02
2.326585464086195998e+02 1.354641786219888218e+03 1.403008857650639243e+02
2.348870391711898264e+02 1.355256084632687134e+03 1.407895732112100404e+02
2.375676872231661036e+02 1.349783272093611458e+03 1.405340803834507142e+02
2.393440247151941662e+02 1.356484681463485231e+03 1.417669481076389388e+02
2.415725174777643929e+02 1.357098979876284147e+03 1.422556355537851118e+02
2.438010102497665343e+02 1.357713278291683082e+03 1.427443230019995326e+02
2.460295030123367610e+02 1.358327576704481999e+03 1.432330104481456488e+02
2.479222420053481244e+02 1.364025781307860825e+03 1.443508431315842131e+02
2.501589382328188265e+02 1.364642341058705142e+03 1.448413295202169593e+02
2.523956344697215570e+02 1.365258900812149705e+03 1.453318159109181238e+02
2.546323306971923159e+02 1.365875460562994022e+03 1.458223022995508700e+02
2.565660855553005604e+02 1.371584971222649528e+03 1.469491371474453558e+02
2.584573003328749792e+02 1.378318047257707349e+03 1.482071963769580520e+02
2.607120441812405716e+02 1.378939581951731498e+03 1.487016404386478143e+02
2.629667880390380788e+02 1.379561116648355664e+03 1.491960845024058813e+02
2.649514058276170090e+02 1.385284648234722681e+03 1.503340653392129980e+02
2.672143531503151053e+02 1.385908444269392248e+03 1.508303083454577518e+02
2.694773292593840210e+02 1.386532248239210730e+03 1.513265576642821202e+02
2.717402765726500320e+02 1.387156044271280280e+03 1.518228006684585125e+02
2.737184480819430519e+02 1.393913090490659215e+03 1.530999286891571955e+02
2.759912683375742404e+02 1.394539608063012338e+03 1.535983367364835317e+02
2.782640598162665242e+02 1.395166117702816337e+03 1.540967384732986147e+02
2.803241782683301722e+02 1.400910461534661636e+03 1.552512758833693169e+02
2.823598028088658225e+02 1.407683345052907271e+03 1.565410028119858339e+02
2.846506419084528829e+02 1.408314829635891101e+03 1.570433622218578762e+02
2.867157989244879559e+02 1.415095853971307861e+03 1.583395653540332546e+02
2.890165109664401939e+02 1.415730060094575038e+03 1.588440898070552976e+02
2.915231879935849975e+02 1.410209291319991507e+03 1.585504467640536745e+02
2.940102054931970201e+02 1.404683103269456069e+03 1.582524925822706336e+02
2.962912004367897794e+02 1.405311874247305468e+03 1.587526932615724036e+02
-3.921488460487910288e+01 1.256992366618477035e+03 7.521857702609393925e+01
-3.561353641168506101e+01 1.252808378193793487e+03 7.531441692685564249e+01
-3.202859850415802612e+01 1.248619866168256976e+03 7.540665819653476376e+01
-2.846007057487344127e+01 1.244426830626003039e+03 7.549530092294567396e+01
-2.490795147936671583e+01 1.240229272115078402e+03 7.558033755440341395e+01
-2.137224370080792824e+01 1.236027189486454063e+03 7.566178313128359889e+01
-1.648501085163019297e+01 1.227020940401208236e+03 7.534569582353907435e+01
-1.299032848828858278e+01 1.222807548852403670e+03 7.541814490356902922e+01
-9.512056659675749870e+00 1.218589633633482435e+03 7.548699531829859666e+01
-4.975539285395484512e+00 1.210522052153910181e+03 7.523278210897976237e+01
-1.536650381315212144e+00 1.206293280777662176e+03 7.529299621977563106e+01
5.589192668879832127e-01 1.206870938076094035e+03 7.575253488052526052e+01
3.973193112798185211e+00 1.202635381516326788e+03 7.580734724497868626e+01
7.108956351143547181e+00 1.199358396299926881e+03 7.593986755430717039e+01
9.189757977997146554e+00 1.199931982697960166e+03 7.639616772725052840e+01
1.127055779391258739e+01 1.200505568596796593e+03 7.685246750307221930e+01
1.463724255284637366e+01 1.196256893798062038e+03 7.689684402955946041e+01
1.773197946859011154e+01 1.192968599411051173e+03 7.702036765325645717e+01
1.979801125372404158e+01 1.193538114406889235e+03 7.747342893920352935e+01
2.312531325445939956e+01 1.189278583380851160e+03 7.750917308426090813e+01
2.518313798111239521e+01 1.189845836048050160e+03 7.796043463968302945e+01
2.724096630134573616e+01 1.190413089705842594e+03 7.841169698314344316e+01
2.929879101856676016e+01 1.190980342370441576e+03 7.886295853649723142e+01
3.135661933880010110e+01 1.191547596028234011e+03 7.931422087995764514e+01
3.341444406545309675e+01 1.192114848695433011e+03 7.976548243537978067e+01
3.426023375909329616e+01 1.197524719380354554e+03 8.064485794290135345e+01
3.632626554422716936e+01 1.198094234376192389e+03 8.109791922884842563e+01
3.958792543257277430e+01 1.193816608678217108e+03 8.111926867772272942e+01
4.164575375280617209e+01 1.194383862336009543e+03 8.157053102118314314e+01
4.370357847002719609e+01 1.194951115000608524e+03 8.202179257453693140e+01
4.459039268476277584e+01 1.200372294359544185e+03 8.291016437263670014e+01
4.665642446989664904e+01 1.200941809355382020e+03 8.336322565858377232e+01
4.872245984861092438e+01 1.201511325341813517e+03 8.381628773256912268e+01
5.078848804016445229e+01 1.202080839347057918e+03 8.426934823047791667e+01
5.285452341887872763e+01 1.202650355333489415e+03 8.472241030446326704e+01
5.492055161043225553e+01 1.203219869338733815e+03 8.517547080237204682e+01
5.608916067879761158e+01 1.207683382562098586e+03 8.598685874581367727e+01
5.905261518070005877e+01 1.204358899330409486e+03 8.608159337426619118e+01
6.023434979667905509e+01 1.208826030695686995e+03 8.689585962651381124e+01
6.230694794920015056e+01 1.209397355753074862e+03 8.735036085490216351e+01
6.437953890512852695e+01 1.209968678826675387e+03 8.780486050514558372e+01
6.645213706708159407e+01 1.210540003886663271e+03 8.825936173560228326e+01
6.852473521960268954e+01 1.211111328944051138e+03 8.871386296399062132e+01
7.144880589150341166e+01 1.207775989305437179e+03 8.879996108994859583e+01
7.351484127964965865e+01 1.208345505294468694e+03 8.925302316600229346e+01
7.558086946177121490e+01 1.208915019297112849e+03 8.970608366184274018e+01
7.764690484991746189e+01 1.209484535286144364e+03 9.015914573789643782e+01
7.971293303203901814e+01 1.210054049288788747e+03 9.061220623373687033e+01
8.280228418394176515e+01 1.205728925575524272e+03 9.059577000173517547e+01
8.384499661173876461e+01 1.211193079283064662e+03 9.151832880769936196e+01
8.591103199045303995e+01 1.211762595269496160e+03 9.197139088168471233e+01
8.797706018200656786e+01 1.212332109274740333e+03 9.242445137959349211e+01
9.004309556072084320e+01 1.212901625261172057e+03 9.287751345357884247e+01
9.210912375227437110e+01 1.213471139266416230e+03 9.333057395148763646e+01
9.339588430121284546e+01 1.217967221707956242e+03 9.416787140034452364e+01
9.720707163540214424e+01 1.209699698205691220e+03 9.375460403977487545e+01
9.830722270125642126e+01 1.215179685244523625e+03 9.468975859736713119e+01
1.013227282758688546e+02 1.210834205521276090e+03 9.465712872669570288e+01
1.033805530025218502e+02 1.211401458188475090e+03 9.510839028211782420e+01
1.054383777291748459e+02 1.211968710855674090e+03 9.555965183753995973e+01
1.074962096429885605e+02 1.212535965504060187e+03 9.601091496903865163e+01
1.095540271730488371e+02 1.213103216187471844e+03 9.646217494631586931e+01
1.116118590868625802e+02 1.213670470835857941e+03 9.691343807781457542e+01
1.136696910101082665e+02 1.214237725486844283e+03 9.736470121138160039e+01
1.148354697951668300e+02 1.219735803230039664e+03 9.831424730886709540e+01
1.169015051738811337e+02 1.220305319216471389e+03 9.876730938285245998e+01
1.189675405620273807e+02 1.220874835205502905e+03 9.922037145890615761e+01
1.210335759407416276e+02 1.221444351191934402e+03 9.967343353289150798e+01
1.230995969357024364e+02 1.222013863213391460e+03 1.001264924526553841e+02
1.244848206437935687e+02 1.226537087660237603e+03 1.009853819437185365e+02
1.265574188057466358e+02 1.227108412720225488e+03 1.014398831741752218e+02
1.286300169582677313e+02 1.227679737777613354e+03 1.018943844025635741e+02
1.307026007176033602e+02 1.228251058867426536e+03 1.023488824746620907e+02
1.327751988795564557e+02 1.228822383927414421e+03 1.028033837051187760e+02
1.348477970320775228e+02 1.229393708984802288e+03 1.032578849335071283e+02
1.361186082169853933e+02 1.234920739471072693e+03 1.042304675317581513e+02
1.381994098344070210e+02 1.235494325866505960e+03 1.046867677026331336e+02
1.402802114612606204e+02 1.236067912264539018e+03 1.051430678755764774e+02
1.423610130786822481e+02 1.236641498659972285e+03 1.055993680464514881e+02
1.444418146961039042e+02 1.237215085055405552e+03 1.060556682173264988e+02
1.465226163135255320e+02 1.237788671450838820e+03 1.065119683882015096e+02
1.486034179403791313e+02 1.238362257848871877e+03 1.069682685611448534e+02
1.500887383115558578e+02 1.242913074586926086e+03 1.078491083064213711e+02
1.521761027027843056e+02 1.243488470053315723e+03 1.083068476316993696e+02
1.542634670940127819e+02 1.244063865519705132e+03 1.087645869569773680e+02
1.556310935598187370e+02 1.249617583763005314e+03 1.097584002332744006e+02
1.577266614159477456e+02 1.250195240567440123e+03 1.102179385010390575e+02
1.598222292720767541e+02 1.250772897371874933e+03 1.106774767688037144e+02
1.612226847128565055e+02 1.256335665250138391e+03 1.116784852334779856e+02
1.633264560338860178e+02 1.256915583392618601e+03 1.121398224437292725e+02
1.654302417481009968e+02 1.257495505502673268e+03 1.126011628102704236e+02
1.668635103168648186e+02 1.263067318415311092e+03 1.136093707806821982e+02
1.689754851027948916e+02 1.263649497895836703e+03 1.140725069334201720e+02
1.705641835192446081e+02 1.268228811459277267e+03 1.149760165090773540e+02
1.720368438462209326e+02 1.273811483080434300e+03 1.159928588243376879e+02
1.741635992640437962e+02 1.274397736937536138e+03 1.164592362302551436e+02
1.756608699743745774e+02 1.279987192569397166e+03 1.174814753806866605e+02
1.771745461645325577e+02 1.285581170245998919e+03 1.185073198701824566e+02
1.793177085121564858e+02 1.286171946779191558e+03 1.189772951610732292e+02
1.814608564571630041e+02 1.286762719342209721e+03 1.194472672936058046e+02
1.836040188047869606e+02 1.287353495875402132e+03 1.199172425844965488e+02
1.857471811429789454e+02 1.287944272405994752e+03 1.203872178733189600e+02
1.878903434906028735e+02 1.288535048939187391e+03 1.208571931642097042e+02
1.894614597782238548e+02 1.294144860581031253e+03 1.218956259533109545e+02
1.916128255907483435e+02 1.294737898452269064e+03 1.223674001866883572e+02
1.932085522749862321e+02 1.300354494109081315e+03 1.234112297934700422e+02
1.953681215524112247e+02 1.300949793318364755e+03 1.238848029693341033e+02
1.969884715612998889e+02 1.306573176321273195e+03 1.249340400314473101e+02
1.991562442941934705e+02 1.307170736866002017e+03 1.254094121477296966e+02
2.013240170365189954e+02 1.307768297413330629e+03 1.258847842660804162e+02
2.029771823682460479e+02 1.313400726404034913e+03 1.269412096265584609e+02
2.051531585660401902e+02 1.314000548286809135e+03 1.274183806853275058e+02
2.073291347732662757e+02 1.314600370172183148e+03 1.278955517461648839e+02
2.090151283558657269e+02 1.320241848481811530e+03 1.289591760426589531e+02
2.111993224117458112e+02 1.320843935670205383e+03 1.294381492002044638e+02
2.133834876812550476e+02 1.321446014923450548e+03 1.299171160451703599e+02
2.151023095185572629e+02 1.327096542553666495e+03 1.309879392581213438e+02
2.172946782623989748e+02 1.327700883147556851e+03 1.314687050476421746e+02
2.189483220086244728e+02 1.334368788490036877e+03 1.326640219106449763e+02
2.211505636948314191e+02 1.334975850624210580e+03 1.331469527433158078e+02
2.233527765946673753e+02 1.335582904823235367e+03 1.336298772634069678e+02
2.255550182714422363e+02 1.336189966954809279e+03 1.341128080940094947e+02
2.273411085171272816e+02 1.341859037555645500e+03 1.351983826447169008e+02
2.295515536588026748e+02 1.342468361025264585e+03 1.356831124178060577e+02
2.313622543011045707e+02 1.348144215641069195e+03 1.367740837861938985e+02
2.331110582439491168e+02 1.354838352505915282e+03 1.379902683828692602e+02
2.353395510065193434e+02 1.355452650918714198e+03 1.384789558290153764e+02
2.375680437785214849e+02 1.356066949334113133e+03 1.389676432772298540e+02
2.397965365505236832e+02 1.356681247749512295e+03 1.394563307254442748e+02
2.420250293130939099e+02 1.357295546162311211e+03 1.399450181715904478e+02
2.442535220850960513e+02 1.357909844577710146e+03 1.404337056198048685e+02
2.464820148476662780e+02 1.358524142990509063e+03 1.409223930659509847e+02
2.483764196164381133e+02 1.364223071189005395e+03 1.420317199598687239e+02
2.506131158439088154e+02 1.364839630939849712e+03 1.425222063485014701e+02
2.525321007577751118e+02 1.370545334581719089e+03 1.436369312288813376e+02
2.547770292365173361e+02 1.371164163605757722e+03 1.441292228725803852e+02
2.566604002476498181e+02 1.377895394983439473e+03 1.453749089759869548e+02
2.589151441054473253e+02 1.378516929680063640e+03 1.458693530397450786e+02
2.608850207399856913e+02 1.384236662185457362e+03 1.469952302020579964e+02
2.631479680626837307e+02 1.384860458220126930e+03 1.474914732083027502e+02
2.654109153759497985e+02 1.385484254252196479e+03 1.479877162124791994e+02
2.676738626986478948e+02 1.386108050286866046e+03 1.484839592187239532e+02
2.696343736011224905e+02 1.392860545541500869e+03 1.497465691550596034e+02
2.719071650798147743e+02 1.393487055181304868e+03 1.502449708918746865e+02
2.741799565585071150e+02 1.394113564821108866e+03 1.507433726286897695e+02
2.762253338526996913e+02 1.399854109570317178e+03 1.518858063838255248e+02
2.785063287962924505e+02 1.400482880548166577e+03 1.523860070631272379e+02
2.807873525168242281e+02 1.401111659458564873e+03 1.528862140529402609e+02
2.823787719459433561e+02 1.419151203334982029e+03 1.555944758888941237e+02
2.846876586664252500e+02 1.419787662861145691e+03 1.561007929718231253e+02
2.871829724945960152e+02 1.415298789157609235e+03 1.559540821747756354e+02
2.894836845365482532e+02 1.415932995280876412e+03 1.564586066277976784e+02
2.917843677921296148e+02 1.416567193468994674e+03 1.569631247682400499e+02
2.940850798340817960e+02 1.417201399592262078e+03 1.574676492212620360e+02
2.963857630896631008e+02 1.417835597780380340e+03 1.579721673617044075e+02
-3.876970436472652182e+01 1.257185748138223971e+03 7.294539625866251242e+01
-3.517002194537769810e+01 1.253001036119254877e+03 7.304974193916548586e+01
-3.158674981169593821e+01 1.248811800499433048e+03 7.315048898858586313e+01
-2.801988765625657152e+01 1.244618041362893791e+03 7.324763749473801511e+01
-2.446943506621323650e+01 1.240419758939876601e+03 7.334118364172789484e+01
-2.093539305958449859e+01 1.236216952717798904e+03 7.343113498856978083e+01
-1.741776158768431060e+01 1.232009622825604993e+03 7.351748767011129360e+01
-1.255847663183715213e+01 1.222995140665278086e+03 7.321302157166074664e+01
-9.081870575154312064e+00 1.218776501852903493e+03 7.329037775635202934e+01
-4.548352325796656714e+00 1.210707617585644130e+03 7.305147868831424773e+01
-2.444577411186742211e+00 1.211287536718718002e+03 7.351281668660384128e+01
9.844404545567613241e-01 1.207055779914374625e+03 7.357973722982144693e+01
4.397047795003629744e+00 1.202819499442514825e+03 7.364305910980701242e+01
6.484412186232077602e+00 1.203394894908904234e+03 7.410079843508499664e+01
9.612280042658539969e+00 1.200115521749385152e+03 7.423868420804821255e+01
1.298550175159755327e+01 1.195868384374003654e+03 7.429336919048591881e+01
1.505809811204443349e+01 1.196439708937394698e+03 7.474787002588929852e+01
1.815150240832889494e+01 1.193150835674789050e+03 7.487819827533519401e+01
2.148534210011962386e+01 1.188892842392511284e+03 7.492424714262048724e+01
2.354317042035296481e+01 1.189460096050303719e+03 7.537550948608090096e+01
2.560099514700596046e+01 1.190027348717502719e+03 7.582677104150302227e+01
2.890201377125453064e+01 1.185760308095824030e+03 7.586562256840799989e+01
2.971664818446032541e+01 1.191161855039894135e+03 7.672929493831722425e+01
3.300125629475940059e+01 1.186890290754131229e+03 7.676454779427893982e+01
3.383230123134666201e+01 1.192296361364885570e+03 7.763181883719977350e+01
3.589012955158000295e+01 1.192863615022678232e+03 7.808308118066018721e+01
3.794795787181340074e+01 1.193430868680470667e+03 7.853434352412060093e+01
4.000578259846633955e+01 1.193998121347669667e+03 7.898560507954272225e+01
4.324936617823806273e+01 1.189715248385292398e+03 7.901186164285790881e+01
4.529898743999052613e+01 1.190280239714445997e+03 7.946132425579337166e+01
4.617926395615410229e+01 1.195699881327853518e+03 8.033939131981733794e+01
4.823709227638744323e+01 1.196267134985646180e+03 8.079065366327775166e+01
5.029491700304043889e+01 1.196834387652844953e+03 8.124191521869987298e+01
5.235274172969343454e+01 1.197401640320043953e+03 8.169317677412199430e+01
5.441056644691445854e+01 1.197968892984642935e+03 8.214443832747578256e+01
5.646839837016017327e+01 1.198536147635629050e+03 8.259570146104282173e+01
5.740610993831728592e+01 1.203971621591503208e+03 8.348636350050448129e+01
6.058404781403413608e+01 1.199670652967426804e+03 8.349822456981874552e+01
6.153817350858508917e+01 1.205110651583179106e+03 8.439248607239862565e+01
6.360420169070658858e+01 1.205680165585823261e+03 8.484554656823905816e+01
6.567023707885289241e+01 1.206249681574854776e+03 8.529860864429275580e+01
6.773626526097439182e+01 1.206819195577499158e+03 8.575166914013320252e+01
6.980230064912063881e+01 1.207388711566530674e+03 8.620473121618690016e+01
7.293101053884157636e+01 1.203074172930394980e+03 8.620579705243630997e+01
7.498883526549457201e+01 1.203641425597593752e+03 8.665705860785843129e+01
7.704666717930831510e+01 1.204208680245980077e+03 8.710832173935713740e+01
7.910449190596125391e+01 1.204775932913178849e+03 8.755958329477925872e+01
8.219217728210355745e+01 1.200450085604797096e+03 8.755165285229837480e+01
8.424179853442402077e+01 1.201015076931350677e+03 8.800111546316550459e+01
8.629141979617648417e+01 1.201580068260504049e+03 8.845057807610098166e+01
8.834104105792891914e+01 1.202145059589657649e+03 8.890004068903644452e+01
9.039066231024941089e+01 1.202710050916211230e+03 8.934950329990358853e+01
9.244028357200184587e+01 1.203275042245364830e+03 8.979896591283905138e+01
9.448990483375428084e+01 1.203840033574518202e+03 9.024842852577452845e+01
9.556710408407471391e+01 1.209313958210544797e+03 9.116967888824108002e+01
9.858914734782720757e+01 1.204970016230225383e+03 9.114735374957712111e+01
9.968276072454142422e+01 1.210448465526129894e+03 9.207220357516190745e+01
1.017405854417624198e+02 1.211015718190728649e+03 9.252346512851569571e+01
1.037984101684154155e+02 1.211582970857927648e+03 9.297472668393781703e+01
1.067876395725657801e+02 1.207229983525426860e+03 9.294520577532723848e+01
1.079140668088821258e+02 1.212717478173512745e+03 9.387725137085864446e+01
1.108868820866387352e+02 1.208359966181133814e+03 9.384413099912984535e+01
1.120297162527561454e+02 1.213851983505310500e+03 9.477977447963456825e+01
1.140875481760018317e+02 1.214419238156296842e+03 9.523103761320159322e+01
1.170357386658713779e+02 1.210054938182207252e+03 9.519251725772299721e+01
1.182031976198758514e+02 1.215553743488094597e+03 9.613356072197750279e+01
1.202610295431215661e+02 1.216120998139080712e+03 9.658482385554455618e+01
1.223188470637498426e+02 1.216688248819892351e+03 9.703608383075342658e+01
1.235191198754412198e+02 1.222196099477129337e+03 9.798432307473412095e+01
1.255851552541554952e+02 1.222765615463560835e+03 9.843738514871947132e+01
1.276511906423017422e+02 1.223335131452592350e+03 9.889044722477316895e+01
1.297172260210160175e+02 1.223904647439023847e+03 9.934350929875851932e+01
1.311234562768014200e+02 1.228433874006759197e+03 1.001999084709919288e+02
1.331960544387545156e+02 1.229005199066747082e+03 1.006544097014486141e+02
1.352686525912755826e+02 1.229576524124134949e+03 1.011089109298369664e+02
1.373412507437966781e+02 1.230147849181522815e+03 1.015634121582253186e+02
1.394138488963177736e+02 1.230719174238910682e+03 1.020179133866136425e+02
1.414864470582708407e+02 1.231290499298898567e+03 1.024724146170703563e+02
1.427835351433436415e+02 1.236825037711397272e+03 1.034418845272491723e+02
1.448643367607652976e+02 1.237398624106830539e+03 1.038981846981241830e+02
1.469451383781869254e+02 1.237972210502263806e+03 1.043544848689991937e+02
1.490259400050405247e+02 1.238545796900296864e+03 1.048107850419425375e+02
1.505125929937613023e+02 1.243097192513114123e+03 1.056848201712497115e+02
1.525999573849897502e+02 1.243672587979503760e+03 1.061425594965277099e+02
1.546873217762182264e+02 1.244247983445893169e+03 1.066002988218057084e+02
1.560566147474875436e+02 1.249802425601285904e+03 1.075856025825705871e+02
1.581521826036165521e+02 1.250380082405720714e+03 1.080451408503352440e+02
1.595461003514257925e+02 1.255941312539391902e+03 1.090358446025611414e+02
1.616498716724553333e+02 1.256521230681872339e+03 1.094971818128124568e+02
1.637536429934848456e+02 1.257101148824352549e+03 1.099585190230637721e+02
1.658574287076998246e+02 1.257681070934407217e+03 1.104198593896048948e+02
1.672923637819270084e+02 1.263253607759137367e+03 1.114195578444845154e+02
1.694043385678570814e+02 1.263835787239662977e+03 1.118826939972224892e+02
1.709943696037660459e+02 1.268415679678698325e+03 1.127793989471307867e+02
1.724686957026723917e+02 1.273999074893308716e+03 1.137877354924294053e+02
1.745954511204952553e+02 1.274585328750410554e+03 1.142541128983468610e+02
1.760943876065865084e+02 1.280175507977389088e+03 1.152678462592575528e+02
1.782293320961244660e+02 1.280764019204961642e+03 1.157360194513718312e+02
1.797528933776194719e+02 1.286360986415418893e+03 1.167551528078802363e+02
1.818960413226259902e+02 1.286951758978437056e+03 1.172251249404128117e+02
1.840392036702499468e+02 1.287542535511629467e+03 1.176951002313035559e+02
1.861823660084419316e+02 1.288133312042222087e+03 1.181650755201259670e+02
1.877469446163548525e+02 1.293741585943738073e+03 1.191932035792880953e+02
1.898983104194473412e+02 1.294334623812376094e+03 1.196649778105971649e+02
1.920496762319718300e+02 1.294927661683613906e+03 1.201367520439745675e+02
1.936470686881397398e+02 1.300544980933879515e+03 1.211720758807945089e+02
1.958066379655647324e+02 1.301140280143162954e+03 1.216456490566585700e+02
1.974286544799167586e+02 1.306764387058163948e+03 1.226863766032396512e+02
1.995964272128103403e+02 1.307361947602892769e+03 1.231617487195220377e+02
2.017641999551358651e+02 1.307959508150221382e+03 1.236371208378727573e+02
2.034190310607081642e+02 1.313592660735210984e+03 1.246850404186095744e+02
2.055950072585023065e+02 1.314192482617985206e+03 1.251622114773785910e+02
2.072744631500464152e+02 1.319832423183853507e+03 1.262155310516447599e+02
2.094586428221730614e+02 1.320434506407272920e+03 1.266945010549687964e+02
2.111626947077166108e+02 1.326081227017934907e+03 1.277532142885572028e+02
2.133550922379291706e+02 1.326685575546974178e+03 1.282339863906577193e+02
2.155474897587098440e+02 1.327289924073413431e+03 1.287147584906899169e+02
2.171932602318515819e+02 1.333955976508993217e+03 1.298976996430865825e+02
2.193955019086264429e+02 1.334563038640566901e+03 1.303806304736890525e+02
2.215977435948333891e+02 1.335170100774740604e+03 1.308635613063598839e+02
2.237999564946693454e+02 1.335777154973765391e+03 1.313464858264511008e+02
2.255795090398671050e+02 1.341444687828241968e+03 1.324217556528622595e+02
2.277899541909745267e+02 1.342054011300461070e+03 1.329064854280197778e+02
2.295941171327890515e+02 1.347728328169905581e+03 1.339871520721113711e+02
2.313350773091916892e+02 1.354420620377375599e+03 1.351909635426805494e+02
2.331736948092188300e+02 1.360104434867858572e+03 1.362791857566502927e+02
2.354104198230605220e+02 1.360721002553852031e+03 1.367696784578627671e+02
2.380205556157662556e+02 1.356263515620972385e+03 1.366570258852556208e+02
2.402490483877684539e+02 1.356877814036371547e+03 1.371457133334700416e+02
2.424775411503386806e+02 1.357492112449170463e+03 1.376344007796162145e+02
2.447060339223408221e+02 1.358106410864569398e+03 1.381230882278306353e+02
2.465939009887101747e+02 1.363803801315873670e+03 1.392221104072316962e+02
2.488305972256129053e+02 1.364420361069318005e+03 1.397125967979328038e+02
2.510672934530836073e+02 1.365036920820162322e+03 1.402030831865655500e+02
2.529879456040314096e+02 1.370743348691931260e+03 1.413092948156223656e+02
2.548634699260798300e+02 1.377472734142672380e+03 1.425426227165272621e+02
2.571182425608162703e+02 1.378094276771845671e+03 1.430370730907966390e+02
2.593729864186137775e+02 1.378715811468469838e+03 1.435315171545547628e+02
2.616277302669793698e+02 1.379337346162493986e+03 1.440259612162444682e+02
2.636074761477802326e+02 1.385060063601986485e+03 1.451451315531507475e+02
2.658704234610463004e+02 1.385683859634056034e+03 1.456413745573271399e+02
2.678230905989942130e+02 1.392434510232146749e+03 1.468916113577771512e+02
2.700958820776864968e+02 1.393061019871950748e+03 1.473900130945922342e+02
2.723686735563787806e+02 1.393687529511754747e+03 1.478884148314073173e+02
2.744075131595161565e+02 1.399426536517202976e+03 1.490205438643151297e+02
2.766885081031089157e+02 1.400055307495052375e+03 1.495207445436168427e+02
2.787084436400076584e+02 1.406824501061163346e+03 1.507857326797549717e+02
2.809992827395947188e+02 1.407455985644147177e+03 1.512880920896270140e+02
2.830487507652552495e+02 1.414233320031693211e+03 1.525595564118331708e+02
2.853494628072074875e+02 1.414867526154960387e+03 1.530640808648552138e+02
2.876501460627887923e+02 1.415501724343078877e+03 1.535685990052975853e+02
2.899508581047410303e+02 1.416135930466346053e+03 1.540731234583195715e+02
2.922515413603223919e+02 1.416770128654464315e+03 1.545776415987619430e+02
2.945522534022745731e+02 1.417404334777731719e+03 1.550821660517839859e+02
2.968529366578558779e+02 1.418038532965849981e+03 1.555866841922263575e+02
-3.472650747907039204e+01 1.253193694044716494e+03 7.078506695147532923e+01
-3.114490111923379345e+01 1.249003734830609346e+03 7.089431978063694828e+01
-2.896892154479462533e+01 1.249603557644177272e+03 7.137149157987239789e+01
-2.541193042960719595e+01 1.245406813078710456e+03 7.147534652822584178e+01
-2.187134938315148247e+01 1.241205544972190410e+03 7.157560289306854884e+01
-1.698257745192421453e+01 1.232198662144857508e+03 7.129534904292961528e+01
-1.348302136986649202e+01 1.227986085242123863e+03 7.138660901998206043e+01
-9.999875656203187191e+00 1.223768984599297255e+03 7.147427425423792613e+01
-5.461151272878282725e+00 1.215701059377224965e+03 7.125248865317328750e+01
-2.017390449672689101e+00 1.211473102151283683e+03 7.133151325615877170e+01
8.638446493722540254e-02 1.212053021284357555e+03 7.179285125444836524e+01
3.505531297945537972e+00 1.207818279052854678e+03 7.186647825171515080e+01
6.908266868437465291e+00 1.203579012835092044e+03 7.193651029991332280e+01
1.003480210540476492e+01 1.200299060799978406e+03 7.208120069862545165e+01
